ply
format ascii 1.0
element vertex 1261
property float x
property float y
property float z
property uchar red
property uchar green
property uchar blue
end_header
-0.687948 -0.311325 0.335664 127 0 127
0.211549 0.188455 -0.289806 76 153 0
0.379572 -0.228615 -0.459025 204 51 127
-0.388208 0.174884 -0.006462 76 153 0
-0.369128 0.174884 -0.093524 76 153 0
0.371109 -0.041422 -0.192130 255 0 0
0.757264 -0.050152 0.063860 127 127 0
0.661923 -0.199906 -0.494789 204 51 127
-0.147884 0.174884 0.435112 76 153 0
0.728519 -0.311325 0.073571 127 127 0
0.757264 -0.222325 -0.081840 127 127 0
-0.655255 -0.152166 0.591526 127 0 127
0.366467 0.188455 0.148802 76 153 0
0.371109 -0.184712 0.117619 255 0 0
-0.721951 -0.093094 -0.393708 127 0 127
-0.118398 0.056308 0.084454 76 153 0
0.415182 0.174884 -0.386077 76 153 0
-0.230359 0.056308 0.194324 76 153 0
0.568785 -0.130626 -0.494789 204 51 127
-0.381076 -0.219831 0.368090 153 0 76
-0.096061 0.056308 0.277797 76 153 0
0.637845 0.174884 -0.361589 76 153 0
0.013471 0.135832 -0.494789 204 51 127
0.371109 0.029722 0.426752 255 0 0
-0.577364 0.021031 0.459772 76 0 153
0.694939 0.148265 -0.494789 204 51 127
-0.511202 -0.219831 -0.396791 153 0 76
-0.577032 0.174884 0.112797 76 153 0
-0.306491 -0.072558 0.352086 0 255 0
0.478612 -0.183936 0.461122 76 0 153
0.680152 -0.058793 0.462054 76 0 153
-0.721951 -0.150964 -0.268223 127 0 127
-0.541738 0.188455 -0.154167 76 153 0
-0.721951 0.107408 -0.326090 127 0 127
-0.596268 -0.173040 -0.494789 204 51 127
0.080790 0.188455 -0.457175 76 153 0
0.715544 -0.242056 -0.249485 127 127 0
-0.010918 0.174884 -0.130977 76 153 0
0.409807 0.095159 0.460579 0 255 0
0.596420 -0.219831 -0.113828 0 127 127
0.757264 -0.298391 -0.112056 127 127 0
-0.408827 0.188455 0.258499 76 153 0
0.333439 0.056308 -0.052764 255 0 0
-0.333458 0.107273 0.454131 153 76 0
0.043541 0.188455 -0.095778 76 153 0
-0.176773 -0.219831 -0.293744 0 0 255
-0.048532 0.056308 0.370555 76 153 0
-0.721951 -0.005470 0.013501 127 0 127
-0.306491 -0.088917 0.138815 0 255 0
-0.112832 0.056308 0.148488 76 153 0
0.757264 0.044273 0.048777 127 127 0
0.314199 0.188455 -0.167997 76 153 0
0.162416 -0.219831 -0.277400 0 0 255
0.757264 0.059310 0.149261 127 127 0
0.747456 0.174884 0.110577 76 153 0
-0.424679 -0.179870 0.654759 127 0 127
-0.448886 -0.219831 0.217665 153 0 76
-0.721852 0.036379 -0.494789 204 51 127
-0.161583 -0.219831 -0.339374 0 0 255
-0.306491 -0.178452 0.311597 0 255 0
-0.084961 -0.139516 -0.260809 0 0 255
-0.258354 -0.214669 -0.494789 204 51 127
-0.721951 -0.277956 -0.111347 127 0 127
0.068710 0.056308 0.369789 76 153 0
-0.567999 0.174884 -0.285639 76 153 0
-0.519049 -0.179870 0.456175 153 0 76
0.752182 -0.311325 -0.335428 127 127 0
-0.084311 0.056308 0.447426 153 0 76
-0.681137 -0.098108 0.436698 0 255 0
-0.681137 -0.136215 0.538262 0 255 0
-0.630916 0.188455 -0.439243 76 153 0
-0.052686 0.174884 0.044970 76 153 0
0.422550 0.174884 -0.104096 76 153 0
0.175399 0.056308 0.450638 0 0 255
0.657726 0.174884 -0.140865 76 153 0
-0.721951 0.068875 -0.197476 127 0 127
-0.676064 0.174884 0.346597 76 153 0
-0.499713 0.188455 0.029080 76 153 0
0.646355 0.174884 0.238467 76 153 0
-0.544866 -0.179870 0.648225 127 0 127
0.430935 0.178927 -0.512305 76 153 0
0.718841 -0.272785 0.454131 127 127 0
-0.347724 0.174884 0.340764 76 153 0
0.356563 0.174884 -0.121980 76 153 0
-0.306491 -0.020273 0.174141 0 255 0
0.757264 0.076410 -0.209888 127 127 0
0.012366 0.056308 -0.017638 76 153 0
-0.368238 0.188455 -0.269208 76 153 0
-0.329414 0.174884 0.289933 76 153 0
-0.308468 -0.219831 -0.361178 0 0 255
-0.626459 -0.152166 0.674312 127 0 127
-0.372798 -0.152166 0.590954 255 0 0
0.208582 0.056308 -0.030277 76 153 0
0.447638 -0.192662 -0.494789 204 51 127
0.261165 -0.026860 -0.260809 0 0 255
0.622315 -0.221663 -0.459025 204 51 127
-0.721951 0.080717 -0.043980 127 0 127
-0.395341 0.174884 -0.122319 76 153 0
-0.089354 -0.215297 -0.494789 204 51 127
0.715544 -0.248491 0.081688 127 127 0
0.017860 -0.219831 -0.441798 204 51 127
0.227394 0.188455 0.043569 76 153 0
-0.306491 0.044507 0.137482 0 255 0
-0.422485 -0.152166 0.599505 127 0 127
-0.696370 -0.060772 0.713999 0 255 0
-0.358449 -0.065665 0.718806 255 0 0
-0.036639 0.174884 -0.227604 76 153 0
0.757264 -0.063447 0.403669 127 127 0
-0.680120 -0.077606 0.327002 127 0 127
0.649075 -0.219831 0.345513 0 127 127
0.757264 -0.166442 -0.265602 127 127 0
0.221014 0.056308 -0.161983 76 153 0
-0.153131 0.056308 0.017153 76 153 0
-0.566651 -0.152166 0.602343 127 0 127
0.490865 0.188455 0.022378 76 153 0
0.289931 0.188455 0.068405 76 153 0
-0.238783 0.188455 0.036093 76 153 0
-0.686863 -0.306924 -0.018387 127 0 127
0.757264 -0.069585 -0.125053 127 127 0
0.517803 -0.219831 -0.011504 0 127 127
-0.060095 0.188455 -0.171166 76 153 0
-0.490877 0.188455 0.247862 76 153 0
-0.721951 -0.026910 0.295622 127 0 127
-0.386559 0.174884 0.397248 76 153 0
0.115189 0.155997 -0.494789 204 51 127
-0.345399 -0.125023 0.698131 255 0 0
0.631139 -0.219831 0.159426 0 127 127
-0.018216 0.174884 -0.276624 76 153 0
0.616191 -0.219831 -0.334059 0 127 127
0.203615 0.056308 0.159134 76 153 0
-0.208020 0.062594 0.454131 153 0 76
-0.219042 0.188455 -0.024571 76 153 0
-0.233578 0.056308 -0.213865 76 153 0
0.533410 -0.219831 0.402127 0 127 127
0.757264 0.160633 -0.064540 127 127 0
0.623234 -0.264554 -0.494789 204 51 127
-0.142666 -0.186164 -0.494789 204 51 127
-0.427560 -0.058793 0.422029 153 0 76
0.757264 -0.025695 -0.281744 127 127 0
0.757264 -0.242593 0.208347 127 127 0
0.062690 0.056308 0.188413 76 153 0
0.581673 0.188455 -0.208334 76 153 0
0.371109 -0.188097 -0.070963 255 0 0
-0.154848 -0.219831 -0.407797 0 0 255
-0.445206 -0.065224 0.327002 153 0 76
-0.513641 0.174884 -0.483904 76 153 0
0.611076 -0.219831 0.282856 0 127 127
-0.654644 0.174884 0.092020 76 153 0
-0.721951 -0.000284 -0.476571 127 0 127
-0.451489 -0.152166 0.444893 127 0 127
0.034867 0.188455 0.167240 76 153 0
-0.721951 -0.311143 -0.164667 127 0 127
0.158849 0.188455 -0.472670 76 153 0
-0.721951 -0.238273 0.111601 127 0 127
0.681657 -0.219831 -0.458205 204 51 127
-0.306491 -0.134849 -0.080093 0 255 0
-0.492490 0.036822 -0.494789 204 51 127
-0.725094 0.193926 -0.406692 76 153 0
-0.549946 0.043536 0.454131 153 76 0
-0.570339 0.174884 0.380849 76 153 0
-0.721951 -0.137248 0.020963 127 0 127
0.757264 -0.281581 0.294710 127 127 0
-0.721951 -0.270719 0.337974 127 0 127
0.689020 0.174884 0.157329 76 153 0
0.566646 0.033316 -0.494789 204 51 127
0.513665 -0.219831 0.054215 0 127 127
0.461555 -0.219831 0.094736 0 127 127
-0.681137 -0.183358 0.489882 127 0 127
-0.154811 0.174884 0.078847 76 153 0
0.431404 -0.219831 0.387785 0 127 127
-0.292487 0.103767 -0.494789 204 51 127
0.483624 -0.034007 -0.494789 204 51 127
0.277811 0.150810 0.462211 0 0 255
0.715544 -0.268983 0.120676 127 127 0
0.503796 -0.219831 0.247201 0 127 127
0.757264 0.053193 -0.368675 127 127 0
-0.121041 0.174884 0.207372 76 153 0
0.399124 -0.149816 -0.494789 204 51 127
-0.612264 0.188455 0.134342 76 153 0
-0.437537 -0.219831 0.326438 153 0 76
0.463658 0.188455 0.056160 76 153 0
0.343545 0.032564 -0.494789 204 51 127
0.703266 0.174884 0.258698 76 153 0
-0.508255 -0.179870 0.708330 127 0 127
0.715544 -0.282057 -0.308949 127 127 0
-0.383611 0.154101 -0.494789 204 51 127
0.399200 0.188455 0.214567 76 153 0
0.681516 0.001282 0.456740 127 0 127
-0.568089 -0.219831 -0.403916 153 0 76
0.687280 -0.219831 0.146785 0 127 127
0.564923 0.155830 0.454131 0 255 0
-0.716299 0.174884 0.103588 76 153 0
-0.456331 -0.309589 -0.494789 204 51 127
-0.565720 0.174884 0.188920 76 153 0
0.392600 0.174884 0.052141 76 153 0
0.757264 -0.001123 -0.475453 127 127 0
-0.465898 -0.219831 -0.294949 153 0 76
-0.027117 -0.175524 -0.260809 0 0 255
-0.684559 0.150676 0.462211 153 76 0
0.122909 -0.292392 -0.459025 204 51 127
-0.660811 0.032220 -0.494789 204 51 127
-0.630961 -0.014622 0.454131 76 0 153
0.371109 -0.091125 -0.155356 255 0 0
0.757264 -0.116015 0.184186 127 127 0
0.570072 -0.097797 0.456740 76 0 153
-0.721951 -0.176163 0.400454 127 0 127
-0.678261 0.188455 -0.414126 76 153 0
-0.113805 -0.033912 -0.494789 204 51 127
-0.721951 -0.151010 0.303837 127 0 127
-0.463739 0.162300 0.454131 153 76 0
-0.054328 0.056308 0.419752 76 153 0
-0.721951 0.021817 0.377600 127 0 127
-0.197060 0.056308 0.330597 76 153 0
-0.382750 0.076547 -0.494789 204 51 127
0.050445 0.174884 0.252362 76 153 0
0.037779 0.056308 0.453690 0 0 255
-0.429123 0.193620 -0.512305 76 153 0
-0.718038 -0.311325 -0.197414 127 0 127
-0.174079 0.056308 0.160300 76 153 0
-0.681137 -0.081521 0.512508 0 255 0
0.526189 0.174884 0.049121 76 153 0
-0.240396 -0.219831 -0.366326 0 0 255
0.578637 -0.265626 -0.459025 204 51 127
0.447074 -0.019694 0.458174 127 0 127
-0.306491 -0.145148 0.423269 0 255 0
0.552333 -0.020437 -0.494789 204 51 127
-0.721951 0.146257 -0.112170 127 0 127
0.202930 -0.219831 -0.455103 204 51 127
-0.688532 -0.058793 0.675575 0 255 0
0.079825 0.056308 0.249104 76 153 0
0.750652 -0.098706 0.454131 127 127 0
-0.322778 -0.059575 0.454131 0 255 0
-0.442202 0.174884 0.025433 76 153 0
0.725993 -0.311325 0.111488 127 127 0
0.328937 -0.219831 -0.260988 0 0 255
0.748825 -0.275498 -0.494789 127 127 0
-0.343714 -0.219831 0.153131 153 0 76
-0.226943 0.174884 -0.329570 76 153 0
-0.721951 -0.242621 -0.221967 127 0 127
0.736218 0.174884 0.365301 76 153 0
0.763976 0.193926 -0.197060 76 153 0
-0.370829 -0.152166 0.704039 255 0 0
0.773977 0.193078 0.191721 76 153 0
0.559803 0.188455 -0.154540 76 153 0
-0.315997 0.139855 -0.494789 204 51 127
-0.053246 0.174884 0.437224 76 153 0
-0.689252 -0.211754 -0.494789 204 51 127
-0.597917 0.174884 0.174599 76 153 0
-0.054908 0.188455 0.012541 76 153 0
0.628557 0.174884 -0.396235 76 153 0
-0.530037 -0.219831 0.444557 153 0 76
-0.282824 0.174884 -0.109337 76 153 0
0.053277 -0.219831 -0.437744 204 51 127
-0.721951 -0.305490 -0.432657 127 0 127
-0.505288 -0.219831 -0.343002 153 0 76
-0.560490 0.188455 -0.118749 76 153 0
0.757264 -0.268321 -0.260179 127 127 0
-0.721951 -0.036443 0.389307 127 0 127
0.604165 -0.219831 0.009839 0 127 127
0.695712 0.174884 0.057919 76 153 0
-0.721951 -0.054879 -0.103315 127 0 127
0.076820 0.188455 -0.046428 76 153 0
0.477631 -0.311325 -0.478241 204 51 127
0.757264 -0.053951 -0.322502 127 127 0
0.339471 0.174884 -0.433150 76 153 0
0.715544 -0.244788 -0.060362 127 127 0
0.059796 -0.096900 -0.494789 204 51 127
-0.201707 -0.078123 -0.260809 0 0 255
-0.526810 -0.219831 -0.094547 153 0 76
0.295435 0.174884 0.437331 76 153 0
-0.144751 0.056308 -0.036227 76 153 0
-0.153661 0.188455 -0.226751 76 153 0
-0.273937 0.056308 -0.028456 0 255 0
-0.629728 -0.058793 0.363528 153 0 76
-0.322374 0.072948 -0.494789 204 51 127
-0.193901 0.188455 -0.195616 76 153 0
-0.413892 0.188455 -0.293046 76 153 0
0.333014 0.082370 0.454131 0 0 255
0.498343 0.174884 -0.087145 76 153 0
-0.628708 0.174884 0.364806 76 153 0
-0.053693 0.188455 -0.048709 76 153 0
-0.220765 0.056308 -0.155916 76 153 0
0.360610 0.023458 -0.260809 0 0 255
-0.508967 0.174884 -0.303564 76 153 0
0.522553 -0.178678 0.462211 76 0 153
-0.676486 -0.069843 -0.494789 204 51 127
0.409298 -0.311325 -0.476364 204 51 127
0.602751 -0.219831 0.391964 0 127 127
-0.440363 0.188455 0.203819 76 153 0
0.757264 -0.033475 0.194745 127 127 0
-0.561250 0.188455 0.013638 76 153 0
0.715544 -0.223703 0.342042 127 127 0
-0.358449 -0.099487 0.672848 255 0 0
0.757264 -0.248306 0.092102 127 127 0
0.717680 0.117622 0.462211 127 127 0
0.531060 0.174884 -0.012809 76 153 0
0.757264 0.046750 -0.252718 127 127 0
-0.434319 0.028274 -0.494789 204 51 127
-0.254409 0.056308 0.370343 76 153 0
0.371109 -0.081641 -0.089526 255 0 0
0.757264 -0.063320 -0.164758 127 127 0
-0.462437 -0.090021 -0.494789 204 51 127
-0.714149 -0.311325 -0.339625 127 0 127
0.739700 0.174884 0.034447 76 153 0
0.735682 0.174884 0.435299 76 153 0
0.436599 0.188455 0.342334 76 153 0
-0.369909 0.188455 -0.398946 76 153 0
0.466077 0.174884 -0.339303 76 153 0
-0.265748 0.188455 0.130483 76 153 0
-0.616504 -0.179870 0.602373 127 0 127
-0.286331 0.188455 0.434632 76 153 0
-0.141462 0.074427 -0.494789 204 51 127
0.163750 0.174884 -0.113522 76 153 0
-0.658191 -0.155849 -0.494789 204 51 127
-0.058349 0.188455 -0.376136 76 153 0
-0.065267 0.174884 -0.118101 76 153 0
-0.105978 -0.219831 -0.327047 0 0 255
-0.721951 0.038865 -0.361005 127 0 127
-0.540087 -0.152166 0.511986 127 0 127
0.042084 -0.242287 -0.494789 204 51 127
0.552707 0.043524 0.454131 127 0 127
-0.691275 -0.311325 0.140464 127 0 127
-0.373244 -0.152166 0.642670 127 0 127
-0.603009 -0.058793 0.396259 153 0 76
0.505402 0.188455 -0.441896 76 153 0
-0.306491 -0.133856 0.259153 0 255 0
-0.601344 -0.179870 0.512416 127 0 127
-0.306491 -0.094173 0.204994 0 255 0
0.757264 -0.061112 0.368661 127 127 0
-0.171175 0.174884 0.250063 76 153 0
-0.721951 0.144008 -0.283361 127 0 127
0.594103 -0.219831 0.160284 0 127 127
-0.681137 -0.133975 0.446473 0 255 0
-0.306491 0.045647 -0.198380 0 255 0
-0.385862 -0.219831 -0.360203 153 0 76
-0.276300 0.056308 -0.181957 0 255 0
0.448862 -0.219831 0.284962 0 127 127
0.143788 0.056308 -0.065039 76 153 0
-0.375775 -0.219831 -0.092566 153 0 76
0.575331 0.188455 -0.372858 76 153 0
0.464529 0.174884 0.126986 76 153 0
0.274483 -0.276275 -0.459025 204 51 127
-0.517280 -0.152166 0.614913 127 0 127
-0.460618 0.007932 0.454131 76 0 153
-0.721951 0.111635 -0.056976 127 0 127
-0.721951 0.074719 -0.450232 127 0 127
-0.721951 0.038182 -0.114553 127 0 127
0.379944 0.188455 -0.016654 76 153 0
0.228447 0.038861 -0.260809 0 0 255
0.757264 -0.064254 -0.045399 127 127 0
-0.423855 -0.058793 0.352135 153 0 76
0.360249 0.188455 0.089103 76 153 0
-0.278532 -0.276237 -0.494789 204 51 127
0.528115 0.188455 -0.175598 76 153 0
0.036065 0.167591 -0.494789 204 51 127
0.423956 0.188455 0.244571 76 153 0
0.256917 -0.219831 -0.339097 0 0 255
0.371109 -0.115646 0.350605 255 0 0
0.265199 0.096293 0.457370 0 0 255
-0.153072 -0.097478 -0.494789 204 51 127
0.248564 0.174884 0.346942 76 153 0
-0.108152 0.174884 0.065239 76 153 0
-0.445723 -0.219831 0.077338 153 0 76
0.624284 0.188455 0.140156 76 153 0
-0.449386 0.188455 0.165596 76 153 0
0.582455 -0.219831 -0.187208 0 127 127
-0.356751 0.174884 0.069313 76 153 0
0.673819 0.174884 0.305742 76 153 0
-0.418148 0.188455 -0.439461 76 153 0
-0.345399 -0.180841 0.718818 255 0 0
-0.044834 0.056308 -0.048273 76 153 0
-0.286670 0.188455 -0.029442 76 153 0
-0.429327 0.174884 0.302813 76 153 0
0.757264 -0.171603 -0.201466 127 127 0
0.088980 0.188455 0.059720 76 153 0
-0.306491 -0.112080 0.037345 0 255 0
-0.332554 0.174884 -0.124294 76 153 0
-0.610401 -0.219831 0.317625 153 0 76
-0.524272 -0.219831 -0.272993 153 0 76
-0.088995 -0.253004 -0.459025 204 51 127
-0.721951 -0.089876 -0.307401 127 0 127
0.308263 -0.199386 -0.494789 204 51 127
-0.725410 0.193926 0.214653 76 153 0
0.737896 0.174884 -0.097732 76 153 0
0.757264 -0.076995 0.170517 127 127 0
-0.204465 0.174884 -0.509900 204 51 127
-0.716029 -0.167935 0.454131 127 0 127
-0.325196 0.174884 -0.069147 76 153 0
-0.080773 0.188455 0.129798 76 153 0
-0.686863 -0.299991 -0.081561 127 0 127
0.773977 0.182894 0.403472 76 153 0
-0.690868 -0.311325 0.039822 127 0 127
-0.426541 -0.219831 -0.324584 153 0 76
-0.213192 0.028888 -0.260809 0 0 255
0.465150 -0.219831 -0.273007 0 127 127
0.554008 0.174884 0.222949 76 153 0
-0.399130 0.174884 -0.383560 76 153 0
0.447894 0.017360 0.456740 127 0 127
-0.289120 0.056308 0.268716 0 255 0
0.567502 0.174884 -0.235019 76 153 0
-0.336291 -0.219831 0.187524 0 255 0
0.735533 0.188455 -0.361120 76 153 0
0.696575 0.175627 0.466427 76 153 0
0.715544 -0.228441 0.252658 127 127 0
0.675602 0.015591 -0.494789 204 51 127
0.491543 -0.219831 0.346329 0 127 127
-0.099286 0.188455 -0.451099 76 153 0
-0.430661 -0.219831 -0.133635 153 0 76
-0.721951 -0.282070 -0.032423 127 0 127
-0.225230 0.020453 -0.494789 204 51 127
-0.686863 -0.259523 0.100001 127 0 127
-0.659715 -0.219831 -0.102844 127 0 127
-0.055636 -0.019375 -0.260809 0 0 255
0.757264 -0.151547 0.022994 127 127 0
-0.686863 -0.263533 -0.134592 127 0 127
-0.536677 -0.152166 0.460204 127 0 127
-0.721951 0.165700 -0.390049 127 0 127
0.643218 -0.250567 -0.459025 204 51 127
-0.057500 0.086281 0.462211 153 0 76
-0.334305 -0.219831 -0.101970 153 0 76
0.527793 -0.219831 -0.262973 0 127 127
-0.002861 0.056308 0.095330 76 153 0
-0.367251 -0.179870 0.505884 255 0 0
-0.550176 -0.240429 -0.494789 204 51 127
0.440426 -0.090727 -0.494789 204 51 127
-0.172924 0.188455 0.312473 76 153 0
-0.690438 -0.311325 0.106007 127 0 127
0.757264 -0.185611 0.102307 127 127 0
-0.489597 -0.219831 0.426570 153 0 76
0.371109 -0.021429 -0.220482 255 0 0
0.757264 -0.180614 0.412679 127 127 0
-0.169884 0.174884 -0.511385 204 51 127
-0.551275 -0.152166 0.702994 0 0 255
0.195765 0.084756 0.454474 0 0 255
0.237240 0.174884 -0.057371 76 153 0
0.001318 0.174884 -0.387036 76 153 0
0.757264 0.084773 -0.457563 127 127 0
-0.501583 -0.152166 0.569374 127 0 127
0.757264 0.149006 0.297647 127 127 0
-0.107551 0.188455 0.237789 76 153 0
0.757264 -0.280905 0.259900 127 127 0
0.633864 0.174884 0.080653 76 153 0
-0.611205 -0.127773 0.327002 127 0 127
-0.302042 0.174884 0.385092 76 153 0
0.590583 0.188455 0.191526 76 153 0
-0.704067 -0.311325 0.208448 127 0 127
-0.350486 0.174884 0.247910 76 153 0
-0.614183 -0.152166 0.496233 127 0 127
-0.696370 -0.060779 0.614571 0 255 0
0.400913 0.159651 -0.494789 76 153 0
0.094400 0.056308 -0.232854 0 0 255
0.176212 0.188455 -0.285751 76 153 0
0.407438 0.188455 -0.221676 76 153 0
0.044398 0.056308 -0.012313 76 153 0
-0.306491 -0.084129 -0.114553 0 255 0
0.160301 0.174884 0.264615 76 153 0
0.757264 0.003373 0.378184 127 127 0
-0.400239 -0.179870 0.547359 127 0 127
-0.611820 0.188455 -0.365661 76 153 0
0.773977 0.192009 -0.480323 76 153 0
-0.719731 0.174884 -0.064515 76 153 0
-0.388732 -0.152166 0.327954 127 0 127
0.535337 0.174884 -0.346141 76 153 0
-0.721951 0.122887 -0.216408 127 0 127
0.371109 -0.073816 0.225501 255 0 0
0.555992 0.123908 0.456740 0 255 0
-0.321122 -0.206159 0.454131 0 255 0
-0.105359 0.119330 0.459826 153 0 76
-0.455248 -0.152166 0.689320 127 0 127
0.757264 -0.207354 0.169744 127 127 0
-0.306491 0.031834 0.197540 0 255 0
-0.721951 -0.029317 0.422187 127 0 127
0.660900 -0.219831 -0.306152 0 127 127
0.595672 0.007107 0.456740 127 0 127
0.757264 0.015447 -0.237538 127 127 0
-0.452437 0.188455 -0.349652 76 153 0
0.291160 0.056308 0.044632 76 153 0
-0.444994 0.174884 0.073100 76 153 0
0.715544 -0.242343 -0.202613 127 127 0
0.211803 0.188455 -0.359808 76 153 0
-0.424849 0.188455 -0.044051 76 153 0
-0.448649 0.188455 0.384090 76 153 0
0.154591 0.071525 -0.494789 204 51 127
0.067578 0.056308 0.103485 76 153 0
0.430958 0.096705 -0.494789 204 51 127
0.306584 0.174884 0.246416 76 153 0
-0.625225 -0.152166 0.558678 127 0 127
0.728921 0.076147 0.454131 127 127 0
-0.581530 -0.219831 -0.203310 153 0 76
0.312263 0.188455 0.007627 76 153 0
0.757264 0.150719 -0.443198 127 127 0
-0.666381 -0.179870 0.530963 127 0 127
0.757264 0.071539 0.369987 127 127 0
-0.367873 -0.179870 0.562990 127 0 127
-0.664954 0.174884 -0.104638 76 153 0
-0.679732 0.174884 0.201994 76 153 0
0.242840 0.056308 0.210235 76 153 0
-0.721951 0.163546 0.058533 127 0 127
0.270470 0.174884 0.287804 76 153 0
-0.721951 0.119912 0.311810 127 0 127
-0.246623 0.124264 -0.494789 204 51 127
0.333035 -0.265153 -0.494789 204 51 127
-0.520567 0.149062 0.462211 153 76 0
-0.314211 -0.246515 -0.459025 204 51 127
0.671611 -0.311325 -0.492147 204 51 127
-0.074796 -0.170736 -0.494789 204 51 127
-0.343197 -0.015055 -0.494789 204 51 127
-0.742703 0.193926 0.158416 76 153 0
0.353799 -0.277877 -0.459025 204 51 127
-0.721951 -0.219928 0.445321 127 0 127
-0.335350 -0.198722 -0.494789 204 51 127
0.536339 -0.064191 0.462211 76 0 153
0.422080 -0.219831 -0.380933 0 127 127
-0.637423 0.174884 0.421099 76 153 0
-0.686863 -0.230263 0.429347 127 0 127
0.497477 0.127699 0.456740 0 255 0
0.689851 -0.217522 0.454131 76 0 153
-0.423856 0.106474 -0.494789 204 51 127
-0.241159 0.188455 -0.259176 76 153 0
0.371109 -0.019733 0.143843 255 0 0
-0.677026 -0.041833 0.454131 76 0 153
-0.358449 -0.137582 0.379953 255 0 0
0.312172 0.056308 -0.161488 76 153 0
0.051843 0.188455 -0.411604 76 153 0
-0.579524 0.161860 -0.494789 76 153 0
0.106094 0.174884 0.246363 76 153 0
0.757264 0.151795 0.407701 127 127 0
-0.470715 -0.152166 0.350401 127 0 127
-0.546391 0.068570 -0.494789 204 51 127
0.496207 0.063314 0.454131 127 0 127
0.684100 -0.219831 -0.048423 0 127 127
0.207045 0.174884 0.436959 76 153 0
0.414283 -0.219831 0.019336 0 127 127
0.069921 0.174884 -0.197508 76 153 0
-0.603337 -0.152166 0.349467 127 0 127
-0.629022 -0.219831 0.195850 153 0 76
-0.721951 -0.023057 -0.085866 127 0 127
0.276338 0.188455 0.020684 76 153 0
-0.438182 -0.219831 -0.211544 153 0 76
-0.464109 0.174884 0.287259 76 153 0
-0.490554 -0.152166 0.465155 127 0 127
-0.576490 0.119215 0.458209 153 76 0
0.582753 -0.280267 -0.494789 204 51 127
0.526862 0.060829 -0.494789 204 51 127
0.603694 -0.219831 0.425332 0 127 127
0.255381 -0.258099 -0.494789 204 51 127
-0.721951 -0.053588 -0.030314 127 0 127
0.003318 0.056308 -0.104185 76 153 0
0.757264 0.129622 0.351362 127 127 0
-0.306491 -0.045791 0.290404 0 255 0
0.508275 0.188455 0.316346 76 153 0
0.265103 0.056308 -0.170909 76 153 0
-0.425515 -0.145990 0.739454 0 0 255
-0.117309 -0.040441 -0.260809 0 0 255
0.318790 0.174884 0.334839 76 153 0
-0.488151 -0.066399 -0.494789 204 51 127
0.371109 -0.219770 0.338035 255 0 0
-0.526147 0.188455 0.108738 76 153 0
0.511663 -0.116432 0.456740 76 0 153
-0.686032 0.091833 -0.494789 204 51 127
0.296348 -0.219831 -0.260847 0 0 255
0.370577 -0.093103 -0.494789 204 51 127
-0.577290 -0.152166 0.634345 127 0 127
-0.536338 0.174884 0.390108 76 153 0
0.080991 0.010764 -0.260809 0 0 255
0.587250 0.174884 -0.510406 204 51 127
0.403945 0.188455 0.280700 76 153 0
0.681449 -0.096924 -0.494789 204 51 127
0.133651 0.056308 -0.184978 76 153 0
-0.686863 -0.234526 -0.372008 127 0 127
0.638327 0.041449 0.462211 127 0 127
-0.505883 0.174884 0.181440 76 153 0
-0.506158 -0.045145 0.454131 76 0 153
0.757264 -0.130560 0.395291 127 127 0
0.367442 0.193926 -0.506441 76 153 0
-0.306491 -0.128881 -0.230007 0 255 0
0.520475 0.174884 0.209669 76 153 0
0.327096 -0.219831 -0.447929 204 51 127
0.692311 0.174884 -0.109335 76 153 0
-0.290229 0.174884 -0.461862 76 153 0
0.205270 0.121133 0.462211 0 0 255
0.399014 -0.219831 0.263618 0 127 127
0.433743 -0.219831 0.340060 0 127 127
-0.358449 -0.067794 0.395579 255 0 0
0.283913 -0.004523 -0.260809 0 0 255
-0.624147 -0.219831 -0.014816 153 0 76
0.367609 0.056308 -0.124549 255 0 0
-0.146975 0.188455 0.406741 76 153 0
-0.199350 0.056308 -0.129013 76 153 0
0.278757 -0.219831 -0.368364 0 0 255
-0.057707 -0.228337 -0.459025 204 51 127
0.757264 -0.215918 -0.213947 127 127 0
0.124437 0.174884 0.363317 76 153 0
0.372852 0.088697 -0.494789 204 51 127
-0.306491 -0.020669 -0.114148 0 255 0
0.204036 0.056308 0.036003 76 153 0
0.396556 -0.219831 -0.065181 255 0 0
-0.306491 -0.028062 -0.193849 0 255 0
-0.452950 0.188455 -0.164217 76 153 0
0.371109 -0.126043 0.121842 255 0 0
0.530946 -0.219831 0.086674 0 127 127
-0.700564 0.148624 -0.494789 204 51 127
0.226116 0.188455 0.153372 76 153 0
-0.306491 -0.117252 0.110321 0 255 0
0.391366 -0.219831 0.115438 0 127 127
0.339065 0.188455 0.393723 76 153 0
-0.610666 -0.043329 0.454131 76 0 153
-0.270454 -0.213663 -0.260809 0 0 255
0.615022 -0.219831 -0.053595 0 127 127
0.060560 -0.219831 -0.379561 0 0 255
-0.392378 0.174884 0.186454 76 153 0
-0.306491 -0.076484 -0.188145 0 255 0
0.560052 0.174884 0.270451 76 153 0
0.684747 0.174884 0.398135 76 153 0
0.757264 0.110143 -0.370702 127 127 0
0.560003 -0.219831 0.025845 0 127 127
0.453866 -0.219831 0.235714 0 127 127
-0.541620 -0.179870 0.715293 127 0 127
-0.114739 0.188455 -0.134693 76 153 0
0.596558 0.188455 -0.342871 76 153 0
-0.652116 0.174884 0.187581 76 153 0
-0.110669 0.056308 -0.031756 76 153 0
0.003150 -0.244603 -0.494789 204 51 127
0.404912 0.174884 0.463715 0 255 0
-0.686101 -0.219831 -0.245157 127 0 127
-0.448458 0.188455 -0.382597 76 153 0
0.653031 0.159382 -0.494789 204 51 127
-0.721951 -0.232374 0.381585 127 0 127
0.279996 -0.154965 -0.494789 204 51 127
-0.119880 -0.219831 -0.291841 0 0 255
0.715901 0.188455 -0.426203 76 153 0
-0.480683 -0.179870 0.608825 127 0 127
0.390548 0.130259 -0.494789 204 51 127
-0.518650 0.188455 0.295185 76 153 0
0.303841 0.188455 -0.350541 76 153 0
0.600753 -0.050904 -0.494789 204 51 127
-0.095458 -0.015767 -0.260809 0 0 255
0.121042 0.174884 0.128622 76 153 0
0.494005 0.174884 -0.279787 76 153 0
0.686491 -0.219831 -0.154667 127 127 0
-0.721951 0.039759 0.110534 127 0 127
-0.198054 -0.016305 -0.260809 0 0 255
-0.146281 0.174884 -0.102244 76 153 0
-0.235957 0.056308 0.419082 76 153 0
0.371109 0.054853 0.408480 255 0 0
0.644098 0.188455 0.290665 76 153 0
-0.361104 -0.208021 0.454131 153 0 76
-0.686863 -0.268228 -0.205867 127 0 127
0.757264 -0.278413 0.329711 127 127 0
-0.480021 0.174884 0.127097 76 153 0
-0.230737 0.188455 -0.181983 76 153 0
-0.721951 -0.038036 0.253317 127 0 127
0.356596 -0.219831 -0.301933 0 0 255
0.551790 0.174884 0.163365 76 153 0
0.338955 0.056308 0.178572 255 0 0
0.165811 0.056308 0.078998 76 153 0
0.313982 0.188455 0.137484 76 153 0
0.278741 0.056308 -0.015447 76 153 0
-0.580316 -0.179870 0.486229 127 0 127
0.735958 -0.311325 -0.362461 127 127 0
-0.721951 -0.041858 -0.237426 127 0 127
0.757264 -0.138082 0.245279 127 127 0
-0.013233 0.174884 0.201049 76 153 0
-0.689312 -0.311325 -0.131637 127 0 127
-0.538523 -0.132076 0.739454 0 0 255
0.371109 -0.008915 0.080633 255 0 0
0.320204 0.188455 0.182676 76 153 0
-0.533164 0.188455 0.323971 76 153 0
0.107814 0.174884 0.413682 76 153 0
-0.614490 -0.179870 0.656992 127 0 127
0.661155 -0.139637 -0.494789 204 51 127
-0.568555 0.174884 0.320652 76 153 0
-0.721951 0.041726 -0.255839 127 0 127
-0.626954 -0.219831 0.056057 153 0 76
-0.306491 -0.150632 -0.045069 0 255 0
-0.306491 -0.059333 0.028325 0 255 0
0.367751 0.174884 -0.075370 76 153 0
-0.531262 0.174884 0.161156 76 153 0
-0.721951 0.193056 0.038076 76 153 0
-0.075648 0.056308 0.321024 76 153 0
-0.675405 0.188455 -0.078899 76 153 0
0.644742 0.174884 -0.300333 76 153 0
-0.051318 0.056308 0.001494 76 153 0
0.754142 -0.133006 0.454131 127 127 0
0.757264 0.110834 -0.419692 127 127 0
0.487686 -0.219831 0.123576 0 127 127
0.757264 -0.109345 0.080867 127 127 0
0.073608 0.188455 -0.356644 76 153 0
-0.085188 -0.134908 -0.494789 204 51 127
0.260184 0.174884 -0.441157 76 153 0
-0.670847 -0.219831 0.359476 153 0 76
-0.496442 0.174884 0.400443 76 153 0
0.757264 -0.008645 -0.126363 127 127 0
0.057738 0.174884 -0.254486 76 153 0
0.530618 0.174884 0.407026 76 153 0
0.757264 -0.212434 -0.261719 127 127 0
-0.123663 0.056308 0.115836 76 153 0
0.364927 0.188455 -0.347679 76 153 0
0.757264 0.126846 0.152316 127 127 0
0.270657 0.156154 -0.494789 204 51 127
0.371109 -0.014187 -0.102449 255 0 0
-0.700537 0.193926 -0.501615 76 153 0
0.212727 0.174884 -0.421951 76 153 0
0.531409 -0.226608 -0.459025 204 51 127
-0.177921 -0.034652 -0.494789 204 51 127
0.268402 0.188455 -0.136965 76 153 0
-0.375471 -0.219831 0.010963 153 0 76
0.757264 0.061919 -0.489187 127 127 0
-0.458079 0.008664 -0.494789 204 51 127
-0.057940 0.056308 0.091876 76 153 0
-0.721951 -0.268256 0.430689 127 0 127
-0.358449 -0.143782 0.467491 127 0 127
-0.166089 0.188455 0.051758 76 153 0
-0.206774 0.188455 -0.242815 76 153 0
-0.525006 0.188455 0.006151 76 153 0
-0.698065 0.188455 -0.207933 76 153 0
-0.380145 -0.219831 -0.224935 153 0 76
-0.185943 0.117040 0.459400 153 0 76
0.757264 -0.206432 -0.324639 127 127 0
-0.302419 0.188455 -0.346796 76 153 0
0.284396 0.116654 -0.494789 204 51 127
-0.721951 0.189718 0.446278 76 153 0
-0.270935 0.174884 0.323405 76 153 0
-0.279984 -0.040945 -0.260809 0 0 255
0.465477 -0.219831 0.395890 0 127 127
-0.721951 -0.027168 -0.290235 127 0 127
-0.373362 -0.219831 -0.295053 153 0 76
-0.721951 0.020081 0.416326 127 0 127
-0.674556 -0.219831 -0.212152 127 0 127
0.160959 0.174884 0.405760 76 153 0
-0.014034 0.188455 -0.100668 76 153 0
-0.102779 -0.078064 -0.260809 0 0 255
-0.006437 0.056308 0.008726 76 153 0
0.461810 -0.001974 -0.494789 204 51 127
0.642893 -0.311325 -0.480813 204 51 127
-0.463040 -0.175844 0.747936 0 0 255
0.646852 0.188455 -0.416786 76 153 0
-0.599475 -0.219831 -0.073912 153 0 76
-0.306491 -0.024498 0.081290 0 255 0
-0.401121 0.188455 -0.477405 76 153 0
-0.681137 -0.124314 0.380343 127 0 127
0.757264 -0.190242 -0.021704 127 127 0
0.448198 0.174884 0.397536 76 153 0
0.039725 0.174884 0.281090 76 153 0
-0.306491 -0.120564 0.378378 0 255 0
0.757264 0.092576 0.423296 127 127 0
-0.409658 0.174884 0.029579 76 153 0
-0.634306 -0.152166 0.733143 0 0 255
0.440453 0.188455 0.297225 76 153 0
-0.456319 -0.219831 -0.076947 153 0 76
0.757264 -0.044939 -0.106876 127 127 0
-0.279665 0.188455 0.267971 76 153 0
-0.375362 0.174884 0.325782 76 153 0
-0.064748 0.051614 -0.494789 204 51 127
-0.691671 0.011900 0.462211 127 0 127
-0.186106 0.188455 -0.287792 76 153 0
-0.286596 0.056308 0.358553 0 255 0
-0.541006 0.174884 0.062333 76 153 0
-0.307467 0.034815 -0.494789 204 51 127
0.486735 0.174884 0.086208 76 153 0
-0.318473 -0.219831 0.321435 0 255 0
-0.705820 -0.311325 0.066484 127 0 127
0.371109 -0.095584 0.420618 255 0 0
0.418323 -0.039874 -0.494789 204 51 127
-0.696370 -0.084993 0.661798 0 255 0
-0.636047 -0.083514 0.327002 153 0 76
-0.721951 -0.177810 -0.404084 127 0 127
-0.721951 -0.114875 -0.452745 127 0 127
-0.721951 -0.153742 -0.128322 127 0 127
0.127269 -0.256432 -0.494789 204 51 127
-0.721951 -0.113039 0.098766 127 0 127
-0.273516 -0.077640 -0.494789 204 51 127
0.620361 -0.219831 0.059489 0 127 127
-0.237968 0.188455 0.094068 76 153 0
0.757264 -0.301786 0.125462 127 127 0
0.517787 0.174884 -0.260517 76 153 0
0.437910 0.188455 0.006938 76 153 0
0.184089 -0.206202 -0.260809 0 0 255
-0.306491 -0.050422 0.194000 0 255 0
0.757264 0.008596 0.079921 127 127 0
0.712133 0.188455 0.209406 76 153 0
0.458597 0.188455 -0.481981 76 153 0
-0.102388 0.188455 -0.078868 76 153 0
0.097945 0.056308 0.407226 76 153 0
0.191657 -0.311325 -0.461361 204 51 127
0.341589 0.150068 -0.494789 204 51 127
-0.670120 -0.179870 0.591445 127 0 127
-0.063545 0.188455 -0.287430 76 153 0
0.715544 -0.232157 0.413193 127 127 0
-0.559672 -0.058793 0.433199 153 0 76
0.390548 0.188455 -0.129253 76 153 0
0.156802 0.174884 -0.055281 76 153 0
-0.149343 0.056308 -0.176621 76 153 0
-0.004476 0.188455 0.227662 76 153 0
0.301039 0.174884 -0.426487 76 153 0
-0.551381 0.028280 -0.494789 204 51 127
-0.306491 -0.003375 0.249184 0 255 0
-0.587234 -0.219831 0.126784 153 0 76
-0.592234 -0.020626 -0.494789 204 51 127
0.174916 0.056308 0.383963 76 153 0
-0.326444 -0.219831 0.401471 153 0 76
0.743919 0.188455 -0.453535 76 153 0
-0.266746 0.174884 -0.068810 76 153 0
-0.586213 -0.152166 0.718260 0 0 255
-0.513734 0.188455 -0.420803 76 153 0
-0.299590 0.165444 -0.494789 204 51 127
-0.573657 0.188455 0.290739 76 153 0
-0.189293 0.036623 -0.494789 204 51 127
0.715544 -0.220180 0.024834 127 127 0
-0.374876 0.188455 -0.235910 76 153 0
-0.221275 -0.209608 -0.494789 204 51 127
0.551262 0.174884 -0.123819 76 153 0
-0.185065 0.185157 0.466427 76 153 0
0.407485 -0.246452 -0.459025 204 51 127
-0.721951 -0.104886 -0.086832 127 0 127
0.406326 0.174884 -0.313037 76 153 0
-0.247906 -0.219831 -0.416732 0 0 255
-0.306491 -0.063933 0.408174 0 255 0
0.729462 0.188455 -0.297997 76 153 0
-0.392029 -0.219831 -0.424448 204 51 127
-0.468407 -0.058793 0.386623 153 0 76
0.371109 -0.092810 0.155286 255 0 0
-0.331436 0.174884 -0.011454 76 153 0
0.371109 -0.151547 -0.118214 255 0 0
0.751461 -0.311325 -0.183083 127 127 0
0.535942 -0.219831 -0.098364 0 127 127
0.040619 -0.141998 -0.260809 0 0 255
-0.303341 0.174884 0.167177 76 153 0
-0.074860 0.166325 -0.494789 204 51 127
-0.132097 0.174884 0.025476 76 153 0
-0.721951 -0.150760 0.261120 127 0 127
0.497990 -0.058793 0.461011 127 0 127
-0.570895 -0.123689 0.327002 127 0 127
0.546135 0.174884 -0.479137 76 153 0
0.642506 -0.219831 -0.009377 0 127 127
0.072717 -0.102608 -0.260809 0 0 255
0.281428 0.174884 0.393111 76 153 0
0.350866 -0.105643 -0.260809 255 0 0
-0.505970 -0.179870 0.538990 127 0 127
-0.380942 -0.179870 0.610900 255 0 0
-0.306491 -0.002887 0.280800 0 255 0
-0.412006 -0.031086 0.454131 76 0 153
-0.306491 -0.181035 0.015751 0 255 0
0.757264 -0.091956 0.123483 127 127 0
-0.721951 0.044829 -0.050125 127 0 127
0.505060 0.188455 0.264662 76 153 0
-0.540385 0.188455 -0.478642 76 153 0
-0.460830 -0.152166 0.530930 127 0 127
0.181647 0.188455 -0.084006 76 153 0
-0.696370 -0.097186 0.580546 0 255 0
-0.721951 0.137639 -0.441575 127 0 127
-0.034655 0.056308 -0.207793 76 153 0
-0.369367 -0.219831 -0.159726 153 0 76
0.461758 0.174884 0.450421 0 255 0
0.742097 -0.311325 -0.455915 204 51 127
-0.658142 -0.219831 -0.264082 153 0 76
0.411287 -0.193290 0.454131 76 0 153
0.699116 0.174884 -0.284784 76 153 0
0.757264 -0.100056 -0.442281 127 127 0
-0.721951 -0.239035 -0.127522 127 0 127
0.639300 -0.219831 -0.414186 0 127 127
0.550644 0.174884 -0.081417 76 153 0
0.611590 0.006293 -0.494789 204 51 127
-0.626003 -0.058793 0.427540 153 0 76
-0.434165 -0.219831 -0.020107 153 0 76
0.380516 -0.219831 -0.334431 0 127 127
0.644775 -0.114678 0.456740 76 0 153
0.430913 -0.297137 -0.459025 204 51 127
-0.268408 0.188455 -0.391654 76 153 0
-0.014104 0.174884 -0.316229 76 153 0
0.371109 -0.046629 0.181131 255 0 0
-0.408447 0.174884 -0.189769 76 153 0
0.560501 0.096440 -0.494789 204 51 127
0.342068 0.056308 0.247757 255 0 0
-0.251674 0.174884 -0.368467 76 153 0
0.102332 0.188455 -0.280799 76 153 0
-0.634504 0.188455 -0.211889 76 153 0
0.426929 0.174884 -0.258839 76 153 0
0.264661 0.056308 -0.209180 76 153 0
0.178610 0.056308 0.277979 76 153 0
0.683898 0.174884 -0.377429 76 153 0
-0.707813 -0.311325 0.009190 127 0 127
0.371109 -0.034650 -0.023989 255 0 0
-0.605450 0.010924 -0.494789 204 51 127
-0.515388 -0.016463 0.454131 76 0 153
0.614115 0.118731 0.461574 0 255 0
-0.422105 -0.152166 0.629628 127 0 127
-0.746995 0.175189 -0.013429 76 153 0
0.133511 -0.219831 -0.337326 0 0 255
0.467635 0.107413 0.456740 0 255 0
0.265395 0.188455 0.203744 76 153 0
0.186008 0.056308 0.184625 76 153 0
-0.667408 0.174884 0.407792 76 153 0
-0.515094 -0.219831 0.370920 153 0 76
-0.721951 0.036069 0.289750 127 0 127
0.371127 0.174884 0.210439 76 153 0
0.237966 -0.219831 -0.402447 0 0 255
0.299476 0.056308 0.355865 255 0 0
-0.721951 -0.079446 0.193669 127 0 127
-0.409635 -0.152166 0.494057 127 0 127
-0.558392 -0.152166 0.391304 127 0 127
0.090568 -0.102142 -0.494789 204 51 127
0.476149 -0.219831 0.190349 0 127 127
-0.660884 0.178446 0.466427 76 153 0
0.027716 0.188455 -0.355779 76 153 0
0.100559 0.056308 0.289373 76 153 0
0.317219 0.051964 -0.494789 204 51 127
0.757264 -0.129646 -0.494576 127 127 0
-0.358449 -0.074351 0.570866 255 0 0
-0.690316 -0.311325 -0.287746 127 0 127
0.194775 0.184958 0.466427 76 153 0
-0.292784 -0.219831 -0.387022 0 0 255
0.585655 0.174884 -0.429666 76 153 0
-0.174611 0.056308 -0.233127 0 0 255
-0.647965 0.121551 0.454131 153 76 0
0.286912 -0.114861 -0.260809 0 0 255
-0.000807 0.046791 -0.260809 0 0 255
-0.280612 -0.219831 -0.314579 0 0 255
-0.630573 -0.219831 -0.369761 153 0 76
-0.628258 0.174884 0.316483 76 153 0
-0.721951 0.021007 -0.000517 127 0 127
-0.311390 -0.219831 0.029445 0 255 0
-0.721951 0.124221 -0.155195 127 0 127
-0.309593 -0.035292 -0.494789 204 51 127
0.536179 -0.219831 -0.158908 0 127 127
0.371109 -0.142554 -0.224456 255 0 0
-0.486052 0.188455 -0.484890 76 153 0
0.467393 0.160542 -0.494789 204 51 127
-0.140474 -0.311325 -0.474813 204 51 127
0.222779 -0.223650 -0.494789 204 51 127
0.491789 0.188455 -0.485482 76 153 0
0.168654 0.174884 0.036814 76 153 0
-0.490871 0.073666 0.454131 153 76 0
0.757264 0.026171 0.118346 127 127 0
-0.455185 -0.179870 0.455405 153 0 76
-0.746995 0.175392 0.438633 76 153 0
-0.686863 -0.277462 -0.412702 127 0 127
-0.746995 0.177504 -0.493918 127 0 127
-0.327651 -0.219831 -0.425624 204 51 127
0.258258 0.174884 0.248156 76 153 0
-0.608147 0.153462 -0.494789 204 51 127
0.090763 0.174884 0.364086 76 153 0
-0.497557 -0.285849 -0.459025 204 51 127
0.721075 -0.254537 -0.494789 204 51 127
-0.721951 0.164852 0.028384 127 0 127
0.533195 -0.172875 -0.494789 204 51 127
0.371109 -0.005452 0.375463 255 0 0
-0.270787 0.174884 0.464294 76 153 0
-0.379378 0.188455 0.240158 76 153 0
-0.258731 0.056308 -0.110031 0 255 0
0.647439 0.035621 -0.494789 204 51 127
-0.030513 0.032191 -0.260809 0 0 255
-0.723781 0.193926 -0.363476 76 153 0
-0.453068 -0.152166 0.474832 127 0 127
0.122476 0.174884 -0.149303 76 153 0
0.035509 0.056308 0.395574 76 153 0
-0.402970 -0.219831 -0.298119 153 0 76
0.297761 0.056308 -0.071012 76 153 0
0.757264 0.021752 -0.380636 127 127 0
-0.227193 0.078775 -0.494789 204 51 127
0.734636 0.031390 0.454131 127 127 0
0.665636 -0.219831 0.313885 0 127 127
-0.022328 -0.226624 -0.494789 204 51 127
0.212337 0.056308 0.266573 76 153 0
0.704328 0.174884 -0.060685 76 153 0
-0.575526 -0.265530 -0.459025 204 51 127
-0.577715 -0.219831 -0.141285 153 0 76
0.580112 -0.219831 0.303612 0 127 127
-0.079383 0.174884 -0.192061 76 153 0
-0.714625 0.174884 -0.266961 76 153 0
0.708731 0.188455 -0.228501 76 153 0
0.186839 -0.279252 -0.494789 204 51 127
0.478409 -0.219831 -0.175003 0 127 127
0.323180 0.056308 0.310917 255 0 0
0.421839 -0.219831 -0.290545 0 127 127
0.338832 0.174884 -0.181307 76 153 0
0.715544 -0.224381 -0.338223 127 127 0
0.460420 -0.151827 0.456740 76 0 153
-0.306979 -0.219831 0.062066 0 255 0
-0.306491 -0.092962 -0.022262 0 255 0
-0.147086 0.188455 -0.413925 76 153 0
0.676376 -0.165133 0.456740 76 0 153
0.272388 0.174884 0.047693 76 153 0
0.715544 -0.224488 -0.097801 127 127 0
-0.746995 0.178332 -0.209851 76 153 0
0.530735 0.193926 -0.511246 76 153 0
0.538644 -0.219831 0.347063 0 127 127
-0.039433 0.188455 0.386422 76 153 0
-0.306491 -0.053675 -0.021662 0 255 0
-0.463666 -0.067338 0.747936 0 0 255
-0.231400 0.174884 -0.057623 76 153 0
-0.686863 -0.227731 -0.155127 153 0 76
-0.306491 -0.182189 -0.105431 0 255 0
-0.686863 -0.303002 -0.242423 127 0 127
-0.330000 0.174884 0.024048 76 153 0
0.742206 0.188455 -0.394845 76 153 0
0.409549 -0.219831 -0.187446 0 127 127
-0.306491 0.034415 0.412113 0 255 0
0.371109 -0.059664 0.060206 255 0 0
0.371109 -0.040204 -0.243313 255 0 0
-0.721951 0.103620 0.132337 127 0 127
0.678243 -0.219831 -0.421334 0 127 127
-0.111633 -0.087588 -0.494789 204 51 127
-0.413143 -0.179870 0.714340 127 0 127
-0.721951 -0.224804 0.006475 127 0 127
-0.354643 0.174884 -0.219212 76 153 0
-0.411606 -0.152166 0.384849 127 0 127
-0.601416 0.188455 0.234179 76 153 0
0.136537 0.056308 0.131986 76 153 0
0.601735 0.174884 -0.260101 76 153 0
0.135929 0.188939 0.454131 76 153 0
-0.594077 -0.152166 0.660243 127 0 127
0.336754 0.188455 -0.309950 76 153 0
-0.234458 0.188455 -0.151058 76 153 0
0.154828 0.056308 -0.126259 76 153 0
-0.184537 0.174884 -0.460022 76 153 0
0.178554 0.174884 -0.183413 76 153 0
-0.163949 0.056308 0.348914 76 153 0
-0.665495 0.154079 -0.494789 204 51 127
0.715544 -0.286594 -0.071248 127 127 0
-0.498043 -0.258489 -0.494789 204 51 127
0.581286 0.193926 0.458189 76 153 0
-0.380688 -0.219831 0.414834 153 0 76
-0.306491 -0.048062 -0.134454 0 255 0
-0.721951 -0.112235 -0.343318 127 0 127
0.420454 -0.256178 -0.494789 204 51 127
-0.309206 -0.283072 -0.494789 204 51 127
0.556056 0.188455 0.356413 76 153 0
0.757264 -0.028379 -0.082521 127 127 0
-0.730434 0.174884 -0.162434 76 153 0
-0.099494 0.188455 -0.245692 76 153 0
0.371817 0.188455 0.036293 76 153 0
-0.111484 -0.243238 -0.494789 204 51 127
0.180586 0.188455 -0.319093 76 153 0
-0.351434 -0.235157 -0.494789 204 51 127
0.570431 0.188455 0.107250 76 153 0
0.488055 -0.219831 -0.001015 0 127 127
0.715544 -0.247516 -0.161279 127 127 0
0.208008 0.188455 -0.477743 76 153 0
0.673859 0.188455 -0.032879 76 153 0
0.653083 -0.219831 0.427974 0 127 127
0.386381 -0.016883 0.454131 127 0 127
-0.386056 0.174884 -0.069483 76 153 0
0.349300 0.174884 -0.026422 76 153 0
0.018817 0.188455 -0.184483 76 153 0
0.163026 0.056308 -0.183978 76 153 0
-0.160954 0.188455 0.226080 76 153 0
-0.663611 0.188455 -0.250511 76 153 0
0.434073 -0.219831 -0.126152 0 127 127
0.599855 0.188455 0.290484 76 153 0
0.371109 -0.096170 0.255707 255 0 0
-0.721951 0.008128 -0.122549 127 0 127
-0.545409 -0.083706 0.739454 0 0 255
0.371109 -0.026482 -0.166839 255 0 0
0.371109 -0.135540 -0.152867 255 0 0
-0.342951 -0.165456 0.454131 0 255 0
0.481103 -0.219831 -0.115769 0 127 127
-0.610150 -0.303197 -0.459025 204 51 127
-0.500228 -0.220303 -0.459025 204 51 127
-0.027165 0.056308 0.078852 76 153 0
-0.056359 -0.173084 -0.260809 0 0 255
0.034191 0.056308 0.055510 76 153 0
0.366922 0.174884 0.356821 76 153 0
0.665118 0.188455 -0.184482 76 153 0
0.757264 0.077670 -0.064110 127 127 0
0.158769 0.174884 -0.366171 76 153 0
-0.422561 -0.152166 0.530686 127 0 127
-0.564808 -0.152166 0.475188 127 0 127
-0.211055 -0.219831 -0.363353 0 0 255
0.321409 0.188455 -0.119860 76 153 0
-0.447090 0.174884 -0.442407 76 153 0
-0.541312 -0.210865 -0.494789 204 51 127
-0.721951 -0.034522 0.022055 127 0 127
0.628705 -0.191401 0.454131 76 0 153
0.506848 0.188455 -0.029903 76 153 0
-0.135631 0.188455 0.335257 76 153 0
-0.340928 -0.287888 -0.494789 204 51 127
-0.460741 -0.152166 0.414831 127 0 127
0.427287 0.188455 0.084462 76 153 0
-0.589761 0.174884 -0.455689 76 153 0
-0.579611 -0.078378 0.733426 0 0 255
-0.347078 0.188455 -0.459320 76 153 0
-0.389414 -0.219831 0.110162 153 0 76
-0.511723 -0.058793 0.348949 153 0 76
0.442316 0.174884 -0.208595 76 153 0
0.210069 -0.105791 -0.494789 204 51 127
0.386120 -0.219831 -0.253639 0 127 127
0.757264 0.104662 0.187291 127 127 0
-0.686863 -0.283635 0.391650 127 0 127
-0.187063 -0.219831 -0.261224 0 0 255
0.319497 -0.021794 -0.260809 0 0 255
-0.721951 -0.145378 -0.411132 127 0 127
-0.331092 -0.219831 -0.255442 0 255 0
0.340366 0.056308 -0.113065 255 0 0
0.705112 0.174884 0.316140 76 153 0
-0.366196 0.174884 -0.025641 76 153 0
-0.117071 0.056308 0.394475 76 153 0
-0.438671 0.188455 0.336795 76 153 0
-0.306699 -0.027878 0.454131 0 255 0
-0.372779 0.037908 -0.494789 204 51 127
-0.672266 -0.219831 0.308323 127 0 127
0.757264 -0.154221 -0.006063 127 127 0
-0.110844 -0.219831 -0.377036 0 0 255
0.616357 0.188455 -0.457205 76 153 0
-0.582678 0.174884 -0.026583 76 153 0
-0.479346 0.188455 0.434462 76 153 0
-0.488767 -0.227849 -0.494789 204 51 127
0.471091 0.078122 0.454131 127 0 127
0.241696 -0.223920 -0.459025 204 51 127
-0.345399 -0.156929 0.657304 255 0 0
-0.584542 0.174884 0.437231 76 153 0
0.610545 0.188455 -0.204373 76 153 0
0.618481 0.174884 -0.160041 76 153 0
-0.124029 0.188455 -0.470822 76 153 0
-0.468686 -0.208784 0.454131 153 0 76
-0.306491 -0.093836 0.305824 0 255 0
0.312014 0.056308 0.420127 76 153 0
0.757264 -0.263937 0.035949 127 127 0
-0.035931 -0.111058 -0.260809 0 0 255
0.177496 0.031517 -0.260809 0 0 255
0.130769 -0.041044 -0.494789 204 51 127
0.536791 0.188455 0.123732 76 153 0
-0.443134 -0.219831 0.137071 153 0 76
0.683711 -0.087322 0.456740 76 0 153
0.757264 -0.076887 0.231438 127 127 0
-0.531647 -0.219831 0.120548 153 0 76
0.757264 -0.280822 -0.141057 127 127 0
-0.702794 -0.087689 0.740690 0 255 0
0.006068 0.119662 0.456740 0 0 255
-0.160869 0.174884 -0.377396 76 153 0
0.024754 -0.279346 -0.459025 204 51 127
-0.518977 -0.309256 -0.494789 204 51 127
0.384996 -0.108321 0.454131 76 0 153
0.517841 0.188455 0.088594 76 153 0
-0.023120 0.056308 0.208541 76 153 0
-0.387806 -0.219831 -0.030185 153 0 76
0.033800 0.056308 -0.219560 76 153 0
0.681401 0.188455 -0.083657 76 153 0
-0.696370 -0.109533 0.695067 0 255 0
-0.007730 0.188455 -0.411243 76 153 0
0.088538 0.169018 -0.494789 76 153 0
0.450370 0.174884 0.239270 76 153 0
0.464247 -0.077584 0.456740 76 0 153
0.370096 0.056308 -0.159321 255 0 0
-0.651503 -0.219831 -0.144806 153 0 76
0.757264 -0.179415 0.206396 127 127 0
0.383464 0.174884 -0.212478 76 153 0
0.178656 0.167283 -0.494789 204 51 127
0.715544 -0.247146 -0.118549 127 127 0
0.139669 0.099579 0.456740 0 0 255
0.594010 0.174884 -0.088235 76 153 0
0.757264 -0.032856 0.126996 127 127 0
-0.414034 -0.219831 -0.073780 153 0 76
0.680029 -0.167380 -0.494789 204 51 127
-0.710782 -0.179928 -0.494789 204 51 127
-0.305599 0.188455 -0.296088 76 153 0
-0.137055 0.056308 0.321994 76 153 0
-0.152768 -0.226434 -0.494789 204 51 127
0.017497 -0.123965 -0.260809 0 0 255
-0.580476 -0.303922 -0.494789 204 51 127
0.299614 0.188455 -0.482255 76 153 0
0.358534 0.188455 -0.472808 76 153 0
0.528397 0.174884 0.354974 76 153 0
-0.345399 -0.174540 0.618103 255 0 0
0.757264 -0.095325 0.277105 127 127 0
0.757264 -0.211682 0.053089 127 127 0
0.155538 -0.104737 -0.494789 204 51 127
0.757264 -0.124140 -0.257632 127 127 0
0.725868 -0.193011 0.454131 127 127 0
-0.065135 0.174884 0.299724 76 153 0
-0.721951 -0.139259 0.199921 127 0 127
-0.030184 0.056308 -0.145233 76 153 0
-0.721951 -0.271703 -0.269652 127 0 127
-0.452194 -0.219831 0.383563 153 0 76
0.530672 0.174884 -0.404059 76 153 0
-0.506129 -0.179870 0.671749 127 0 127
0.232517 0.188455 0.250420 76 153 0
-0.306491 -0.178244 -0.193036 0 255 0
-0.549806 0.188455 -0.217486 76 153 0
0.757264 -0.131017 -0.140453 127 127 0
-0.060999 -0.063446 -0.260809 0 0 255
0.715544 -0.285328 0.353077 127 127 0
0.310751 0.174884 0.463706 76 153 0
-0.686863 -0.283829 0.284685 127 0 127
0.361339 -0.035469 -0.494789 204 51 127
0.313393 0.174884 -0.374267 76 153 0
0.093551 0.056308 -0.037565 76 153 0
-0.448027 -0.179870 0.513852 127 0 127
-0.686863 -0.297122 -0.391002 127 0 127
0.773977 0.182720 -0.317577 76 153 0
-0.721951 0.161255 0.294925 127 0 127
-0.234554 0.188455 -0.431783 76 153 0
0.509913 -0.219831 0.289749 0 127 127
-0.168366 0.174884 0.366969 76 153 0
0.484713 0.030545 0.458703 127 0 127
-0.721951 -0.210831 -0.104708 127 0 127
-0.375179 -0.123700 0.327002 127 0 127
-0.358739 -0.121086 -0.494789 204 51 127
-0.721951 -0.148137 -0.032477 127 0 127
0.109788 0.188455 0.439142 76 153 0
-0.721951 -0.071713 -0.259688 127 0 127
0.388103 0.153398 0.454131 0 255 0
-0.283666 -0.003556 -0.494789 204 51 127
0.222752 0.174884 -0.004104 76 153 0
-0.194558 0.188455 0.334015 76 153 0
0.371109 -0.151892 0.232098 255 0 0
-0.306491 -0.014556 0.374809 0 255 0
0.757264 -0.295072 0.068337 127 127 0
-0.213853 0.056308 -0.183976 76 153 0
-0.494705 0.188455 -0.206644 76 153 0
-0.631516 -0.250209 -0.459025 204 51 127
-0.644612 -0.219831 0.238688 153 0 76
-0.659820 -0.152166 0.437772 127 0 127
0.083688 0.188455 0.320927 76 153 0
-0.079515 0.056308 0.206489 76 153 0
0.764081 0.174884 0.353175 76 153 0
0.065989 0.056308 0.445647 76 153 0
0.253286 0.188455 0.143571 76 153 0
-0.306491 -0.186404 -0.228770 0 0 255
-0.306491 -0.085445 0.244012 0 255 0
-0.348217 0.089132 -0.494789 204 51 127
0.738687 -0.011842 -0.494789 204 51 127
-0.354645 0.131242 -0.494789 204 51 127
-0.341264 0.174884 -0.389565 76 153 0
-0.721951 0.053470 0.152951 127 0 127
-0.079126 0.174884 -0.089806 76 153 0
-0.721951 -0.243085 -0.186854 127 0 127
-0.721951 -0.260947 0.052547 127 0 127
-0.686863 -0.290165 -0.341698 127 0 127
0.595410 0.174884 -0.142720 76 153 0
-0.334211 0.188455 -0.485451 76 153 0
-0.665260 -0.245302 -0.459025 204 51 127
-0.721951 -0.286629 0.312631 127 0 127
0.371109 -0.044856 -0.075341 255 0 0
-0.662649 -0.219831 0.414675 153 0 76
-0.467721 -0.085987 0.327002 153 0 76
-0.359599 0.050218 0.454131 153 76 0
0.147047 0.174884 0.213143 76 153 0
0.318484 -0.311325 -0.472003 204 51 127
-0.362273 -0.219831 -0.384897 153 0 76
0.402926 0.188455 -0.079201 76 153 0
-0.399435 -0.152166 0.688269 127 0 127
0.500781 0.188455 0.140986 76 153 0
-0.686863 -0.287941 0.433076 127 0 127
-0.691812 -0.311325 -0.459372 127 0 127
-0.080782 -0.215473 -0.260809 0 0 255
0.208807 -0.165753 -0.494789 204 51 127
-0.721951 0.019536 0.256751 127 0 127
-0.474518 0.188455 -0.028008 76 153 0
0.279419 0.053066 -0.260809 0 0 255
0.757264 0.005094 0.227011 127 127 0
0.757264 -0.219570 -0.476023 127 127 0
-0.746073 0.193926 -0.263436 76 153 0
0.432136 0.063498 0.454131 127 0 127
0.371109 -0.207269 0.213368 255 0 0
0.680255 0.174884 -0.507620 76 153 0
0.213443 0.174884 -0.216199 76 153 0
0.382916 0.122326 0.454131 0 0 255
-0.057751 0.188455 0.209080 76 153 0
-0.637969 -0.179870 0.535324 127 0 127
0.572894 -0.219831 -0.334936 0 127 127
