ply
format ascii 1.0
element vertex 1285
property float x
property float y
property float z
property uchar red
property uchar green
property uchar blue
end_header
0.258536 0.374291 -0.311317 76 0 153
-0.259973 0.076445 0.080533 255 0 0
-0.394604 -0.313933 -0.373217 76 153 0
-0.426034 -0.379800 0.381727 153 0 76
0.445424 -0.144736 -0.373217 0 127 127
0.220477 0.046904 -0.126003 255 0 0
0.413143 -0.231088 -0.274746 0 127 127
0.496182 0.699225 -0.413390 76 153 0
-0.031962 0.779227 -0.390800 153 76 0
-0.486897 -0.477785 0.515308 153 0 76
0.124154 0.076445 -0.062923 255 0 0
-0.119103 -0.087672 0.572815 76 0 153
-0.460827 -0.437661 -0.367336 76 153 0
0.290544 0.076445 -0.325652 255 0 0
-0.431262 -0.379800 0.330694 153 0 76
-0.002965 0.046904 0.532293 255 0 0
-0.422891 -0.429871 0.280777 153 0 76
0.221325 -0.156064 0.547481 76 0 153
0.114844 0.409819 -0.315680 76 0 153
-0.167513 0.644246 -0.374226 153 76 0
-0.448524 0.235835 -0.294317 0 127 127
-0.452432 -0.390533 0.087530 153 0 76
-0.350361 -0.186142 -0.336053 153 76 0
-0.422077 -0.268880 0.513016 153 0 76
0.101386 -0.184015 0.547481 76 0 153
-0.484377 0.046904 -0.171779 255 0 0
-0.470214 0.113719 -0.366002 0 127 127
-0.202663 0.046904 0.402173 255 0 0
-0.030337 0.046904 0.596728 255 0 0
0.422940 0.076445 0.226529 255 0 0
0.041997 0.477559 -0.353760 76 0 153
-0.422891 -0.468862 0.310390 153 0 76
0.433801 -0.474475 0.215692 204 51 127
-0.435088 0.232152 -0.393075 0 127 127
0.333213 0.076445 0.244091 255 0 0
0.085671 0.397487 -0.314165 76 0 153
0.438895 0.422028 -0.317179 76 153 0
0.399336 -0.281127 0.535757 76 0 153
-0.179606 0.076445 -0.034708 255 0 0
0.423912 0.169581 -0.385392 127 0 127
-0.286063 -0.128627 -0.309211 153 76 0
-0.435691 -0.525714 0.611486 153 0 76
0.315178 0.694294 -0.350609 153 76 0
0.284239 0.076445 -0.055838 255 0 0
-0.257160 0.721122 -0.353903 153 76 0
-0.352245 0.721400 -0.353937 153 76 0
-0.016202 0.493367 -0.325938 76 0 153
-0.434786 -0.121318 0.513016 153 0 76
-0.291894 0.076445 0.187546 255 0 0
0.037343 0.076445 0.589250 255 0 0
-0.440868 -0.234331 0.611276 153 0 76
0.495167 -0.318192 0.513016 76 0 153
0.463342 -0.381082 -0.256390 204 51 127
0.145137 0.046904 0.391621 255 0 0
-0.486896 0.063169 0.086980 255 0 0
-0.150131 0.076445 0.337139 255 0 0
-0.294504 0.076445 0.002761 255 0 0
-0.421037 -0.018247 0.513016 153 0 76
-0.415882 -0.657070 -0.274746 76 153 0
0.429257 0.537081 -0.331305 76 153 0
-0.063992 -0.186142 -0.333402 153 76 0
0.402522 -0.064512 -0.373217 0 127 127
-0.331501 0.046904 0.560048 255 0 0
-0.297927 0.046904 0.384580 255 0 0
-0.462026 0.238093 -0.387284 0 127 127
-0.368185 -0.162367 -0.309211 153 76 0
0.392105 0.046904 -0.104712 255 0 0
-0.078475 -0.105779 -0.338752 153 76 0
-0.040133 0.053167 -0.373217 255 0 0
0.354722 0.754424 -0.357992 153 76 0
0.381204 0.050111 0.611486 255 0 0
-0.438691 0.728050 -0.453895 153 0 76
-0.142576 0.046904 0.460136 255 0 0
0.119125 0.046904 0.215453 255 0 0
0.131082 -0.134280 0.577022 76 0 153
-0.340653 0.503214 -0.327260 76 0 153
-0.409840 -0.204061 0.611486 153 0 76
0.137052 0.076445 0.583895 255 0 0
0.497807 0.069326 0.457551 255 0 0
0.491365 -0.638083 0.586556 76 0 153
-0.053735 0.076445 0.600963 255 0 0
-0.109224 0.046904 -0.183620 255 0 0
-0.434044 -0.413673 0.513016 153 0 76
-0.016367 0.445396 -0.320048 76 0 153
0.007827 0.379177 -0.341680 76 0 153
-0.452432 -0.427138 0.491894 153 0 76
0.016247 0.046904 0.090755 255 0 0
-0.003999 0.072685 0.611486 255 0 0
0.295146 -0.137235 0.577022 76 0 153
-0.418184 0.046904 0.076362 255 0 0
-0.185955 0.076445 0.125260 255 0 0
-0.132308 0.503017 -0.328863 76 0 153
-0.187568 -0.181544 -0.309211 153 76 0
0.183276 0.076445 0.408672 255 0 0
0.029339 0.046904 -0.333021 255 0 0
-0.414134 -0.614995 0.513016 153 0 76
-0.331389 -0.164250 0.577022 76 0 153
-0.427643 -0.549279 0.513016 153 0 76
-0.438665 -0.584954 0.611421 153 0 76
0.497444 -0.335147 -0.329514 0 127 127
0.313069 0.076445 0.333279 255 0 0
-0.445170 -0.080788 -0.372580 76 153 0
-0.010615 0.076445 0.351649 255 0 0
0.009544 0.046904 -0.020757 255 0 0
-0.406660 -0.519439 0.611486 153 0 76
-0.427198 0.334605 -0.306445 153 0 76
-0.486896 0.065953 0.455091 255 0 0
0.008764 0.076445 -0.038923 255 0 0
-0.326461 0.076445 -0.202341 255 0 0
0.397575 0.076445 0.188312 255 0 0
0.135427 0.046904 0.185623 255 0 0
-0.450151 -0.379800 0.348806 153 0 76
0.028521 0.076445 0.363433 255 0 0
0.197139 0.076445 0.343075 255 0 0
0.305579 0.076445 -0.367965 255 0 0
-0.388426 -0.543710 0.591720 153 0 76
-0.147937 -0.172135 0.577022 76 0 153
-0.197424 0.076445 0.335604 255 0 0
-0.101474 0.076445 0.086304 255 0 0
0.202335 0.076445 0.481843 255 0 0
0.149529 0.076445 -0.135920 255 0 0
0.399336 -0.529476 0.601995 76 0 153
0.330693 0.487909 -0.325268 76 0 153
0.264920 0.076445 0.078670 255 0 0
-0.106202 0.076445 0.405040 255 0 0
0.399746 -0.419482 -0.274746 0 127 127
-0.286203 0.076445 0.142595 255 0 0
-0.133976 0.046904 0.065819 255 0 0
0.487858 -0.466439 -0.353616 0 127 127
0.460660 -0.379800 -0.156267 204 51 127
-0.363296 0.046904 -0.298736 255 0 0
-0.388426 0.090118 -0.351127 0 127 127
0.383511 -0.123252 -0.338752 153 76 0
-0.389596 -0.201553 -0.274746 76 153 0
0.399336 -0.393235 0.527463 76 0 153
0.452348 -0.010051 -0.274746 0 127 127
0.480304 -0.038608 -0.361499 0 127 127
-0.303411 0.076445 0.072853 255 0 0
-0.373997 0.076445 -0.203927 255 0 0
0.105355 0.076445 0.309043 255 0 0
0.430583 0.567440 -0.335033 76 153 0
-0.366433 0.046904 0.180636 255 0 0
-0.176816 0.722909 -0.383885 153 76 0
0.435754 0.076445 0.156970 255 0 0
-0.452432 -0.419147 0.369833 153 0 76
0.221910 0.076445 -0.204678 255 0 0
-0.388426 -0.190841 -0.357645 76 153 0
0.444631 0.076445 -0.180699 255 0 0
0.416169 0.076445 0.121633 255 0 0
0.275016 0.076445 0.022732 255 0 0
0.015172 -0.186142 -0.315483 153 76 0
-0.334391 0.307752 -0.303170 76 0 153
0.403645 0.096709 -0.277234 127 0 127
0.088071 0.752560 -0.387526 153 76 0
-0.063614 0.076445 0.278329 255 0 0
-0.476458 -0.211307 -0.354255 76 153 0
-0.088274 -0.161344 -0.338752 153 76 0
0.496893 0.039506 0.513016 255 0 0
-0.135591 -0.108671 -0.309211 153 76 0
0.463342 -0.422051 -0.025990 204 51 127
-0.388426 -0.226759 -0.315754 76 153 0
-0.025638 0.808679 -0.371170 153 76 0
-0.486897 -0.204731 0.515922 153 0 76
-0.350239 0.076445 0.213497 255 0 0
-0.422891 -0.429471 -0.180647 153 0 76
-0.002551 0.076445 -0.072718 255 0 0
-0.279556 0.046904 -0.113441 255 0 0
0.263387 0.046904 -0.107584 255 0 0
0.463342 -0.461959 -0.212993 204 51 127
-0.236113 0.046904 -0.087403 255 0 0
0.463342 -0.477984 0.208456 204 51 127
0.382388 0.391232 -0.343160 76 0 153
0.463342 -0.430477 0.257123 204 51 127
0.445296 0.045486 -0.274746 255 0 0
0.253069 0.046904 0.498374 255 0 0
-0.486897 -0.482117 0.555828 153 0 76
0.497807 -0.228217 -0.303939 0 127 127
0.463342 -0.402795 0.310754 204 51 127
-0.396376 -0.183214 0.513016 153 0 76
-0.416391 0.076445 0.207342 255 0 0
-0.452432 -0.401945 -0.186379 153 0 76
-0.433470 -0.185171 -0.274746 76 153 0
0.399336 -0.265337 -0.324264 0 127 127
-0.302515 0.076445 0.039763 255 0 0
-0.428646 0.046904 0.389760 255 0 0
0.363701 -0.168081 -0.309211 153 76 0
0.471664 0.458135 -0.321612 76 153 0
-0.486896 0.072327 0.171212 255 0 0
-0.371664 0.346721 -0.337695 76 0 153
-0.010961 0.076445 -0.241668 255 0 0
0.235952 0.076445 0.335227 255 0 0
-0.449019 -0.379800 0.181650 153 0 76
-0.361891 0.046904 -0.073215 255 0 0
-0.000433 0.046904 0.386351 255 0 0
-0.450780 -0.464518 -0.371412 76 153 0
0.439849 0.253663 -0.296506 127 0 127
0.313320 0.076445 -0.134794 255 0 0
0.378918 -0.107583 0.577022 76 0 153
0.399336 0.192783 -0.298022 127 0 127
-0.486897 0.772810 -0.362919 153 0 76
-0.076277 0.076445 0.143897 255 0 0
-0.017945 0.076445 -0.005266 255 0 0
-0.374641 -0.087672 0.554325 76 0 153
-0.323666 -0.088379 0.577022 76 0 153
-0.390552 -0.662082 0.564022 153 0 76
-0.246768 0.076445 -0.313799 255 0 0
0.403408 -0.356460 0.611486 76 0 153
-0.391227 0.076445 0.209719 255 0 0
0.433801 -0.456254 -0.063650 204 51 127
0.318412 0.076445 -0.056427 255 0 0
-0.482843 0.324981 -0.305263 153 0 76
-0.327943 0.365882 -0.340048 76 0 153
0.309992 0.046904 -0.347917 255 0 0
0.170109 0.385227 -0.312660 76 0 153
-0.413540 0.006802 0.611486 153 0 76
-0.422891 -0.382378 0.058854 153 0 76
0.426035 -0.213175 -0.373217 0 127 127
-0.461516 -0.380689 0.513016 153 0 76
-0.461739 0.798692 -0.452511 153 0 76
0.444010 0.292684 -0.301297 127 0 127
0.497294 0.614970 -0.397412 76 153 0
-0.451472 0.076445 0.377870 255 0 0
-0.408856 0.046904 -0.144832 255 0 0
-0.318171 0.387189 -0.312901 76 0 153
0.355835 0.076445 0.166257 255 0 0
-0.414086 -0.662082 -0.359953 76 153 0
0.399336 -0.012254 -0.355204 0 127 127
-0.430934 0.295646 -0.301661 0 127 127
0.399336 -0.577035 -0.315356 0 127 127
-0.173075 0.432298 -0.318440 76 0 153
0.054112 0.796921 -0.363210 153 76 0
0.235591 0.734721 -0.385336 153 76 0
-0.469134 -0.174330 -0.274746 76 153 0
0.433801 -0.411103 -0.070587 204 51 127
-0.422891 -0.463009 0.002386 153 0 76
0.373186 0.076445 -0.071247 255 0 0
-0.465128 -0.039037 0.513016 153 0 76
0.465328 -0.126376 0.608446 76 0 153
-0.068216 0.783378 -0.361547 153 76 0
-0.067335 0.046904 0.073990 255 0 0
-0.142630 0.076445 0.359387 255 0 0
-0.422996 0.797666 -0.363301 153 0 76
0.350060 0.046904 -0.073526 255 0 0
0.286126 0.730008 -0.354994 153 76 0
0.212710 0.046904 -0.178065 255 0 0
0.436067 -0.478271 0.014128 204 51 127
-0.207267 -0.163268 -0.309211 153 76 0
0.399336 0.144113 -0.375793 127 0 127
0.102562 0.794952 -0.362968 153 76 0
-0.150387 0.046904 -0.004193 255 0 0
-0.452432 -0.422081 0.316137 153 0 76
0.466678 -0.657410 -0.369718 0 127 127
-0.024083 0.076445 0.207042 255 0 0
-0.150817 -0.111832 -0.338752 153 76 0
0.497107 0.017890 -0.331806 0 127 127
0.493596 0.354354 -0.378402 76 153 0
0.272625 0.046904 -0.249620 255 0 0
0.491745 -0.162543 0.513016 76 0 153
0.021380 -0.087672 0.576762 76 0 153
-0.341350 0.046904 -0.258061 255 0 0
0.017284 0.076445 -0.091535 255 0 0
0.221826 0.047542 -0.373217 255 0 0
-0.191433 0.046904 0.177894 255 0 0
-0.104042 0.046904 0.224416 255 0 0
0.399336 -0.232928 0.537987 76 0 153
-0.197832 0.363093 -0.309942 76 0 153
0.134603 0.613531 -0.344532 153 76 0
-0.466935 0.076445 -0.183863 255 0 0
-0.466215 0.728191 -0.444685 153 0 76
-0.453923 0.046904 -0.146006 255 0 0
0.229630 0.046904 0.463213 255 0 0
-0.469122 0.071400 -0.315837 0 127 127
0.433801 -0.438752 0.312765 204 51 127
0.447150 -0.497869 -0.274746 0 127 127
0.399336 0.540476 -0.428437 76 153 0
0.451647 0.076445 -0.074569 255 0 0
0.456982 -0.478271 -0.103850 204 51 127
0.344896 0.370986 -0.310912 76 0 153
0.399336 0.337818 -0.348772 76 153 0
0.458645 -0.519513 -0.274746 0 127 127
0.041543 0.076445 -0.064994 255 0 0
-0.055392 0.688331 -0.349876 153 76 0
0.257231 0.611032 -0.364882 153 76 0
-0.486897 0.448742 -0.348844 153 0 76
-0.226096 0.312170 -0.333453 76 0 153
-0.416300 -0.240238 0.513016 153 0 76
-0.067227 0.076445 0.165239 255 0 0
0.406072 0.396308 -0.314021 76 0 153
-0.219975 0.076445 -0.218783 255 0 0
-0.067584 0.046904 -0.211863 255 0 0
-0.249975 0.435152 -0.318790 76 0 153
-0.060737 0.046904 0.436923 255 0 0
-0.452432 -0.477656 -0.049354 153 0 76
0.431137 -0.569093 -0.274746 0 127 127
0.475343 0.802307 -0.423068 76 153 0
-0.442731 -0.379800 0.422004 153 0 76
0.399336 -0.120422 0.593067 76 0 153
0.484871 -0.391692 0.595372 76 0 153
-0.079679 0.450672 -0.350459 76 0 153
-0.261283 0.076445 -0.134486 255 0 0
-0.139977 0.076377 -0.373217 255 0 0
0.085035 0.046904 0.243319 255 0 0
0.214365 0.627390 -0.372157 153 76 0
0.087218 0.076445 0.497394 255 0 0
-0.308488 0.046904 0.322915 255 0 0
0.216945 0.076445 0.559319 255 0 0
-0.298017 0.076445 0.439468 255 0 0
0.246100 0.322566 -0.304966 76 0 153
-0.411287 0.076445 0.140655 255 0 0
0.249469 0.076445 0.052310 255 0 0
0.026173 0.429749 -0.318127 76 0 153
0.473515 0.173153 -0.378965 127 0 127
-0.462544 -0.425807 -0.274746 76 153 0
0.399336 -0.346761 -0.279834 0 127 127
-0.249571 0.076445 -0.278481 255 0 0
-0.088626 0.426263 -0.317699 76 0 153
0.384040 0.316300 -0.304197 76 0 153
0.233739 0.444871 -0.319983 76 0 153
0.418673 0.321579 -0.304845 76 153 0
-0.342881 0.076445 0.121918 255 0 0
-0.416093 -0.474551 0.513016 153 0 76
0.160822 -0.185328 0.547481 76 0 153
-0.388426 0.208594 -0.307990 0 127 127
-0.484238 -0.177520 0.577884 153 0 76
-0.440056 0.095238 -0.277054 0 127 127
0.325291 0.076445 0.136486 255 0 0
0.472659 -0.263533 -0.274746 0 127 127
0.244210 0.076445 0.185141 255 0 0
-0.412467 -0.630892 0.611486 153 0 76
0.441749 0.046904 0.262783 255 0 0
0.449154 -0.077668 -0.274746 0 127 127
-0.138053 0.391765 -0.343226 76 0 153
-0.231277 0.046904 0.467071 255 0 0
0.457924 -0.379800 -0.214663 204 51 127
-0.427105 0.076445 0.437882 255 0 0
-0.037194 0.733491 -0.385185 153 76 0
-0.237904 -0.144203 0.547481 76 0 153
-0.290049 -0.186120 -0.309211 153 76 0
-0.345146 0.807196 -0.383251 153 76 0
-0.397214 0.228236 -0.392594 0 127 127
-0.295886 0.756418 -0.358237 153 76 0
-0.425599 -0.379800 -0.238374 153 0 76
0.478152 0.046904 -0.189717 255 0 0
-0.486897 -0.640868 -0.301615 76 153 0
-0.072897 0.396343 -0.314025 76 0 153
0.155626 0.076445 -0.200669 255 0 0
-0.406248 -0.265536 0.611486 153 0 76
-0.289617 0.353958 -0.338584 76 0 153
-0.466214 -0.188923 0.513016 153 0 76
0.055745 0.076445 -0.346124 255 0 0
0.442462 0.053313 -0.373217 0 127 127
0.367389 0.046904 0.519120 255 0 0
-0.422891 -0.404237 -0.066097 153 0 76
-0.153976 0.062241 0.611486 255 0 0
0.235498 0.046904 -0.242997 255 0 0
0.421783 0.062674 -0.274746 0 127 127
0.463342 -0.477687 -0.021943 204 51 127
-0.210973 0.766068 -0.389185 153 76 0
0.405228 0.046904 0.194457 255 0 0
-0.388426 0.477137 -0.371495 76 0 153
0.201964 0.046904 -0.256836 255 0 0
-0.389768 0.375753 -0.410707 153 0 76
-0.468828 -0.180194 -0.361995 76 153 0
0.422494 -0.644710 0.513016 76 0 153
0.399336 -0.561217 0.541058 76 0 153
0.491516 -0.282208 0.586250 76 0 153
-0.486897 0.619090 -0.363254 153 0 76
0.382318 -0.110792 -0.309211 153 76 0
-0.107829 0.076445 -0.268303 255 0 0
-0.143378 0.046904 -0.179023 255 0 0
-0.081492 0.405975 -0.344971 76 0 153
-0.437849 -0.074433 0.611474 153 0 76
-0.478642 -0.462351 0.589350 153 0 76
0.348476 0.076445 0.359185 255 0 0
-0.388426 0.770706 -0.377587 153 76 0
0.440133 -0.379800 0.262430 204 51 127
-0.211239 0.046904 0.257561 255 0 0
-0.270282 0.076445 0.120149 255 0 0
0.066086 -0.130477 -0.309211 153 76 0
-0.400922 0.427279 -0.317823 153 0 76
0.425579 0.467580 -0.322772 76 153 0
0.399336 0.613855 -0.372546 76 153 0
-0.370787 0.047055 -0.373217 255 0 0
-0.438986 -0.616488 -0.373130 76 153 0
0.047344 0.046904 -0.241728 255 0 0
0.410221 0.497223 -0.326411 76 153 0
0.209246 0.778242 -0.390679 153 76 0
0.017191 0.076445 0.408036 255 0 0
0.476687 0.028550 0.513016 76 0 153
-0.388426 0.738508 -0.406614 153 0 76
-0.296291 0.404957 -0.344846 76 0 153
0.428274 -0.540715 0.611486 76 0 153
-0.482612 0.046904 0.310414 255 0 0
-0.074420 0.046904 -0.035299 255 0 0
0.447592 -0.351203 0.513016 76 0 153
-0.417584 0.349338 -0.407463 153 0 76
-0.429511 -0.478271 0.166810 153 0 76
-0.139216 0.435630 -0.348612 76 0 153
-0.480598 0.046904 0.034371 255 0 0
0.433801 -0.391169 0.058368 204 51 127
-0.442603 0.468210 -0.421733 153 0 76
0.055963 0.076445 -0.219646 255 0 0
-0.477617 -0.371839 -0.352615 76 153 0
0.399336 -0.294407 0.580942 76 0 153
0.399336 0.476475 -0.411487 76 153 0
-0.452432 -0.400830 0.411441 153 0 76
-0.058019 0.046904 -0.345974 255 0 0
-0.486897 0.207359 -0.295388 0 127 127
-0.478894 0.421479 -0.317111 153 0 76
-0.409802 -0.491400 0.611486 153 0 76
-0.391147 0.076445 -0.130696 255 0 0
-0.228695 0.705231 -0.351952 153 76 0
-0.244776 0.046904 -0.042460 255 0 0
-0.068669 0.076445 0.213709 255 0 0
-0.480841 0.076445 -0.085280 255 0 0
0.428280 -0.604779 -0.373217 0 127 127
0.441521 -0.662082 0.556952 76 0 153
-0.272476 0.046904 -0.287162 255 0 0
0.422920 0.046904 -0.253689 255 0 0
0.074841 0.362019 -0.309811 76 0 153
0.306829 0.652092 -0.345427 153 76 0
0.349032 -0.142817 0.577022 76 0 153
0.025483 0.650342 -0.374975 153 76 0
0.217702 0.076445 0.022169 255 0 0
0.358415 0.630419 -0.342766 153 76 0
-0.425438 -0.379800 -0.193190 153 0 76
0.420670 -0.370985 0.611486 76 0 153
0.137897 0.076445 -0.090008 255 0 0
0.168599 0.046904 0.385744 255 0 0
-0.412848 -0.085483 0.513016 153 0 76
0.352471 0.076445 0.325752 255 0 0
-0.058834 0.476282 -0.353603 76 0 153
0.097609 0.046904 0.480400 255 0 0
-0.164873 0.076445 0.133200 255 0 0
-0.485719 0.012533 -0.334211 76 153 0
0.333999 0.046904 -0.125271 255 0 0
0.096986 0.076445 -0.148140 255 0 0
0.373326 0.076445 0.288437 255 0 0
0.352618 -0.089618 -0.309211 153 76 0
0.433974 0.680408 -0.448113 76 153 0
-0.486897 0.030155 -0.299262 76 153 0
-0.382978 0.809345 -0.365745 153 76 0
-0.416338 0.795798 -0.462282 153 0 76
-0.088912 0.631684 -0.372684 153 76 0
-0.327806 -0.135822 0.547481 76 0 153
0.399742 -0.030300 0.513016 76 0 153
-0.428663 -0.306427 0.611486 153 0 76
-0.483996 0.209211 -0.357122 0 127 127
0.478794 0.046904 -0.157910 255 0 0
0.303584 0.046904 0.061601 255 0 0
0.200524 0.699414 -0.351237 153 76 0
-0.009133 0.046904 -0.063304 255 0 0
0.497807 -0.646294 0.513347 76 0 153
-0.466082 0.403999 -0.404969 153 0 76
-0.194406 0.076445 0.515761 255 0 0
-0.366986 0.076445 0.360420 255 0 0
0.065292 0.046904 -0.064457 255 0 0
0.407902 0.711336 -0.352701 76 153 0
0.461689 0.076445 0.349912 255 0 0
0.433801 -0.413895 -0.221974 204 51 127
-0.486897 -0.311315 0.525892 153 0 76
-0.422891 -0.455810 0.243221 153 0 76
0.013641 0.076445 -0.197511 255 0 0
-0.176010 0.076445 0.450345 255 0 0
-0.388426 0.042483 0.565358 153 0 76
0.297245 0.076445 0.487622 255 0 0
0.497807 -0.604784 0.516106 76 0 153
-0.281417 0.076445 0.454805 255 0 0
-0.446483 0.076445 -0.264191 255 0 0
0.149219 0.046904 -0.128508 255 0 0
-0.474321 -0.611821 -0.274746 76 153 0
-0.452432 -0.456139 0.168031 153 0 76
0.381089 0.483510 -0.324728 76 0 153
-0.176650 0.046904 -0.247184 255 0 0
0.095069 -0.088133 -0.338752 153 76 0
-0.486897 -0.191243 0.533854 153 0 76
-0.388426 0.576293 -0.394755 153 0 76
0.109186 0.046904 -0.141750 255 0 0
-0.397995 0.046904 0.030637 255 0 0
0.258356 0.046904 0.019144 255 0 0
0.213346 0.046904 0.517170 255 0 0
-0.342080 0.046904 0.151063 255 0 0
-0.388426 -0.089748 -0.316713 153 76 0
0.316110 0.730097 -0.384768 153 76 0
-0.460010 -0.245897 0.513016 153 0 76
0.180967 -0.185845 0.577022 76 0 153
0.433801 -0.390586 0.014167 204 51 127
-0.364003 0.046904 0.059434 255 0 0
0.497807 -0.572134 0.515981 76 0 153
0.108062 0.632711 -0.343047 153 76 0
-0.341470 0.046904 0.520572 255 0 0
0.457345 0.340018 -0.307109 76 153 0
0.497807 -0.145601 0.550466 76 0 153
0.130892 0.046904 0.365497 255 0 0
0.469131 0.010435 -0.368622 0 127 127
-0.388426 0.446535 -0.344802 76 0 153
0.241749 0.774803 -0.390257 153 76 0
0.433801 -0.441054 -0.103887 204 51 127
-0.101532 0.046904 -0.263502 255 0 0
-0.422891 -0.416394 -0.253483 153 0 76
-0.028286 0.046904 0.027858 255 0 0
0.469763 0.075611 -0.368910 127 0 127
0.128386 0.076445 0.077703 255 0 0
0.318735 0.500609 -0.348473 76 0 153
0.399336 -0.600044 -0.281123 0 127 127
0.010915 0.076445 0.516165 255 0 0
-0.425052 0.076445 0.107792 255 0 0
-0.174875 0.635855 -0.343433 153 76 0
0.292862 0.076445 0.246343 255 0 0
-0.062947 0.073381 -0.373217 255 0 0
0.188929 0.613987 -0.340818 153 76 0
-0.271004 0.502471 -0.333309 76 0 153
-0.478121 0.022214 0.590131 153 0 76
0.414611 -0.413092 -0.373217 0 127 127
0.443520 0.212203 -0.390625 127 0 127
0.380960 0.046904 -0.342162 255 0 0
-0.442482 -0.478271 0.224927 153 0 76
-0.201817 0.046904 -0.051195 255 0 0
0.286921 0.076445 0.441217 255 0 0
-0.300174 0.806951 -0.364441 153 76 0
-0.177065 0.502935 -0.329528 76 0 153
-0.223373 0.046904 0.003466 255 0 0
-0.467276 0.076445 0.436363 255 0 0
-0.367951 0.046904 -0.266929 255 0 0
-0.422891 -0.403310 0.288176 153 0 76
0.481120 0.076445 0.327555 255 0 0
-0.419537 -0.218419 -0.373217 76 153 0
-0.449680 0.282046 -0.299991 0 127 127
0.295676 0.046904 -0.207539 255 0 0
0.445786 -0.208509 -0.274746 0 127 127
0.462909 -0.610457 0.609267 76 0 153
-0.458984 -0.660508 0.606515 153 0 76
0.019985 0.046904 0.474698 255 0 0
0.399336 0.390979 -0.357695 76 153 0
0.426659 0.076445 -0.342550 0 127 127
-0.455986 0.046904 0.240342 255 0 0
0.333095 -0.087672 0.560012 76 0 153
-0.308614 0.076445 0.543715 255 0 0
0.463342 -0.397210 -0.240172 204 51 127
-0.271623 -0.119434 0.547481 76 0 153
-0.319891 0.076445 0.589482 255 0 0
-0.099599 0.808571 -0.372057 153 76 0
-0.422891 -0.428560 0.254857 153 0 76
0.170755 0.046904 -0.206922 255 0 0
-0.316855 0.446742 -0.349976 76 0 153
-0.461451 0.046904 0.088139 255 0 0
0.441002 0.046904 -0.192620 255 0 0
-0.012385 0.076445 0.528781 255 0 0
-0.079918 0.455708 -0.321314 76 0 153
0.497807 -0.359274 0.528178 76 0 153
0.478757 0.076445 0.373839 255 0 0
0.178240 0.633534 -0.372911 153 76 0
-0.006858 0.046904 0.213194 255 0 0
-0.222145 0.046904 -0.106631 255 0 0
-0.283656 0.076445 0.502800 255 0 0
0.053919 0.046904 0.070592 255 0 0
0.497807 -0.622069 -0.287618 0 127 127
-0.485527 -0.223021 0.573443 153 0 76
-0.388426 -0.269760 0.520875 153 0 76
-0.485077 0.323900 -0.367994 153 0 76
-0.267012 0.674819 -0.348218 153 76 0
-0.329273 -0.186142 -0.325991 153 76 0
0.280237 0.441236 -0.319537 76 0 153
-0.392878 -0.367877 -0.373217 76 153 0
-0.286448 0.046904 -0.245588 255 0 0
-0.091048 0.677191 -0.348509 153 76 0
0.434587 -0.035108 -0.373217 0 127 127
-0.452432 -0.445867 0.264398 153 0 76
0.389051 0.046904 0.139826 255 0 0
0.040103 0.046904 0.302639 255 0 0
0.497711 0.220279 -0.343486 127 0 127
0.220071 0.076445 -0.003811 255 0 0
0.445276 0.450838 -0.419926 76 153 0
-0.465154 0.353999 -0.399454 153 0 76
-0.458768 -0.563727 -0.368352 76 153 0
-0.468083 0.463099 -0.322222 153 0 76
-0.354290 0.305946 -0.317874 76 0 153
-0.422891 -0.411064 -0.159297 153 0 76
0.442360 0.046904 -0.020398 255 0 0
-0.059224 0.046904 0.490752 255 0 0
0.497807 -0.089679 -0.292657 0 127 127
0.068352 0.076445 0.202878 255 0 0
0.092650 0.076445 0.240764 255 0 0
-0.404331 -0.651766 0.513016 153 0 76
-0.380656 0.046904 -0.230665 255 0 0
0.454989 0.250959 -0.394960 127 0 127
-0.265243 0.046904 -0.178990 255 0 0
-0.109509 0.076445 0.251864 255 0 0
-0.407978 0.076445 0.552573 153 0 76
-0.173300 0.076445 -0.351339 255 0 0
-0.409587 -0.445166 -0.373217 76 153 0
0.433801 -0.423735 -0.016938 204 51 127
-0.371833 -0.108898 -0.309211 153 76 0
-0.422891 -0.453433 -0.057154 153 0 76
-0.422656 -0.662082 0.589752 153 0 76
0.399336 -0.113226 0.536969 76 0 153
-0.070863 0.076445 -0.328710 255 0 0
0.436865 0.076445 0.519436 76 0 153
0.026825 0.076445 0.326090 255 0 0
-0.439647 0.005006 0.611356 153 0 76
0.470771 0.025969 -0.274746 0 127 127
-0.024636 0.046904 0.050630 255 0 0
-0.022351 0.076445 0.479549 255 0 0
0.156481 0.686400 -0.349640 153 76 0
-0.407830 0.292180 -0.301235 0 127 127
0.399336 -0.613742 -0.368849 0 127 127
0.446784 0.046904 -0.138112 255 0 0
-0.226046 -0.145880 -0.338752 153 76 0
0.093980 0.686700 -0.379439 153 76 0
0.135433 0.046904 -0.179921 255 0 0
0.485105 0.046904 -0.063321 255 0 0
-0.388426 -0.022726 -0.316856 76 153 0
0.358106 0.076445 0.474277 255 0 0
0.463342 -0.405502 0.074739 204 51 127
-0.422891 -0.451791 0.384651 153 0 76
0.252043 0.046904 -0.257861 255 0 0
0.399336 0.429532 -0.354223 76 0 153
0.306054 0.046904 0.608105 255 0 0
0.172540 0.076445 0.505609 255 0 0
-0.013909 0.046904 0.186980 255 0 0
-0.391039 0.366226 -0.310327 76 0 153
-0.180930 -0.152389 0.547481 76 0 153
0.399336 -0.660189 -0.297951 0 127 127
-0.202641 0.046904 -0.173961 255 0 0
0.451897 0.076445 0.594260 76 0 153
0.490203 0.172963 -0.362524 127 0 127
-0.486897 -0.093637 0.557893 153 0 76
-0.028784 0.046904 0.230203 255 0 0
0.494091 0.046904 -0.254993 255 0 0
0.453172 -0.048609 0.513016 76 0 153
-0.275185 0.046904 0.425074 255 0 0
-0.111431 0.076445 0.051633 255 0 0
0.222964 0.785035 -0.361750 153 76 0
0.273612 0.076445 -0.260907 255 0 0
-0.430609 -0.379800 0.124342 153 0 76
0.012557 0.751272 -0.387368 153 76 0
0.333881 0.046904 -0.017941 255 0 0
-0.392315 -0.662082 -0.341197 76 153 0
0.220783 0.076445 -0.247426 255 0 0
-0.466464 -0.662082 0.533002 153 0 76
0.418733 0.280997 -0.399072 127 0 127
-0.432297 -0.335132 0.513016 153 0 76
0.399857 0.076445 -0.165690 255 0 0
0.142934 0.076445 0.370927 255 0 0
-0.238990 0.076445 -0.194012 255 0 0
0.183826 0.046904 -0.025641 255 0 0
-0.037141 0.481116 -0.324434 76 0 153
-0.329841 0.740378 -0.386030 153 76 0
0.235786 -0.103853 -0.309211 153 76 0
0.182836 0.076445 -0.265387 255 0 0
-0.385822 0.046904 0.146135 255 0 0
0.473631 0.046904 -0.236205 255 0 0
0.444572 -0.407723 0.513016 76 0 153
-0.086069 0.076445 0.489538 255 0 0
-0.440828 -0.494275 -0.274746 76 153 0
-0.305887 0.659075 -0.376047 153 76 0
-0.244637 0.380951 -0.312135 76 0 153
-0.224146 0.046904 -0.372943 255 0 0
-0.226669 -0.097675 0.547481 76 0 153
-0.486897 -0.155725 0.529321 153 0 76
0.207190 0.670224 -0.377416 153 76 0
0.177153 0.046904 0.066663 255 0 0
-0.414808 -0.110356 -0.274746 76 153 0
-0.047317 -0.098764 0.577022 76 0 153
-0.189872 0.076445 0.057081 255 0 0
-0.388426 -0.481914 0.604143 153 0 76
-0.477326 0.010268 -0.274746 76 153 0
0.421434 -0.050385 0.611486 76 0 153
-0.419768 0.076445 -0.005813 255 0 0
-0.038109 0.409790 -0.345439 76 0 153
-0.465235 0.177040 -0.287098 0 127 127
-0.486896 0.069889 -0.238690 255 0 0
-0.167394 0.046904 -0.023222 255 0 0
0.141608 0.046904 0.440562 255 0 0
-0.388426 -0.318452 -0.285869 76 153 0
0.272222 0.672898 -0.347982 153 76 0
-0.222431 0.384349 -0.342315 76 0 153
0.442723 0.076445 -0.142981 255 0 0
0.399336 -0.332875 0.555984 76 0 153
0.497807 0.071126 -0.229735 255 0 0
0.280013 -0.123203 0.547481 76 0 153
0.474885 -0.322859 0.603757 76 0 153
-0.422891 -0.386049 -0.029006 153 0 76
-0.388426 -0.065926 -0.357874 76 153 0
0.230323 0.046904 0.267096 255 0 0
-0.486372 -0.561006 0.569194 153 0 76
0.072854 0.076445 0.599370 255 0 0
0.425993 -0.219515 0.513016 76 0 153
0.433801 -0.468112 0.286605 204 51 127
0.111895 0.076445 0.591069 255 0 0
0.159215 -0.128859 -0.338752 153 76 0
-0.187661 0.076445 0.206250 255 0 0
0.468073 0.630505 -0.437882 76 153 0
0.298012 0.076445 0.360180 255 0 0
-0.011925 0.076445 0.247958 255 0 0
0.008132 0.076445 0.281717 255 0 0
0.163072 0.782297 -0.391177 153 76 0
-0.426418 0.480639 -0.324375 153 0 76
-0.326860 0.703793 -0.381538 153 76 0
-0.027418 0.046904 0.097864 255 0 0
-0.282673 0.072225 0.611486 255 0 0
0.467942 -0.253532 0.607478 76 0 153
-0.433168 -0.255987 0.611486 153 0 76
0.209701 -0.152430 0.577022 76 0 153
-0.482442 0.166084 -0.355785 0 127 127
-0.301483 0.046904 0.466185 255 0 0
-0.131162 0.076445 -0.085794 255 0 0
-0.318305 0.049848 0.611486 255 0 0
0.463342 -0.445793 -0.027057 204 51 127
0.447390 -0.227042 0.513016 76 0 153
0.146220 -0.172926 -0.338752 153 76 0
-0.321266 0.784902 -0.391497 153 76 0
0.399336 -0.053009 -0.299150 0 127 127
-0.388426 0.190074 -0.364344 0 127 127
-0.452654 -0.013515 -0.274746 76 153 0
0.329373 0.076445 0.516715 255 0 0
-0.251301 0.808898 -0.369388 153 76 0
0.276737 0.656093 -0.375681 153 76 0
-0.337253 0.076445 0.066657 255 0 0
0.243271 0.677719 -0.348574 153 76 0
0.415166 -0.662082 0.595362 76 0 153
0.492352 0.404728 -0.387129 76 153 0
-0.144530 0.046904 -0.049633 255 0 0
-0.425190 0.076445 0.022092 255 0 0
-0.056745 0.076445 0.453857 255 0 0
-0.408891 0.103367 -0.377262 0 127 127
0.415951 0.076445 0.403592 255 0 0
-0.178880 0.305328 -0.322912 76 0 153
-0.438145 -0.326211 -0.373185 76 153 0
0.185738 0.046904 -0.091514 255 0 0
0.344143 0.717148 -0.353415 153 76 0
-0.472922 -0.412038 0.596557 153 0 76
-0.474730 0.073331 -0.356455 0 127 127
-0.154350 0.076445 0.315184 255 0 0
0.025624 0.076445 0.545519 255 0 0
-0.388426 -0.111958 0.560430 76 0 153
-0.388426 0.265565 -0.372674 0 127 127
-0.390985 0.076445 0.174318 255 0 0
0.423387 0.456369 -0.420605 76 153 0
-0.367420 0.046904 0.271098 255 0 0
0.227765 0.076445 0.045913 255 0 0
0.417214 -0.603502 0.611486 76 0 153
-0.178192 0.046904 -0.206589 255 0 0
-0.089709 0.046904 0.525640 255 0 0
-0.108773 0.076445 0.378919 255 0 0
0.163640 0.076445 -0.304844 255 0 0
0.402709 0.659869 -0.346382 153 76 0
-0.022537 0.305404 -0.322294 76 0 153
-0.250817 -0.133657 0.577022 76 0 153
-0.422891 -0.474831 0.265873 153 0 76
-0.149296 0.361423 -0.309737 76 0 153
-0.007596 -0.186142 -0.337973 153 76 0
0.102101 0.734423 -0.385299 153 76 0
0.246650 -0.087672 0.552352 76 0 153
-0.422891 -0.474245 0.467429 153 0 76
0.497807 -0.281464 -0.288194 0 127 127
0.348734 0.483554 -0.354496 76 0 153
-0.388426 -0.264938 -0.362875 76 153 0
-0.033346 0.046904 0.378613 255 0 0
0.478114 0.046904 0.095695 255 0 0
0.058317 0.775156 -0.390300 153 76 0
0.399336 -0.076866 0.608751 76 0 153
0.490949 -0.417625 -0.348991 0 127 127
0.183703 -0.147092 0.577022 76 0 153
-0.030795 0.076445 -0.252404 255 0 0
0.072396 -0.140382 0.547481 76 0 153
0.308919 0.304872 -0.326624 76 0 153
0.114932 0.325376 -0.335074 76 0 153
0.227202 0.046904 -0.018878 255 0 0
0.035300 0.755916 -0.358175 153 76 0
0.240076 0.076445 0.309712 255 0 0
-0.452432 -0.470192 -0.163033 153 0 76
0.487969 0.416430 -0.316491 76 153 0
-0.388426 -0.537720 0.553965 153 0 76
-0.388426 0.327299 -0.322158 76 0 153
-0.388426 -0.292528 0.599851 153 0 76
-0.406834 0.046904 -0.089371 255 0 0
0.196064 -0.186142 -0.331675 153 76 0
0.423269 0.046904 0.499186 255 0 0
0.116571 0.076445 -0.195399 255 0 0
0.466515 0.076445 0.028834 255 0 0
0.030421 -0.087672 -0.312773 153 76 0
-0.477660 0.062233 0.513016 255 0 0
-0.137886 -0.128017 0.577022 76 0 153
-0.068919 0.610524 -0.369015 153 76 0
0.196882 0.076445 -0.124505 255 0 0
0.373554 0.046904 0.322971 255 0 0
-0.388426 0.293076 -0.342742 0 127 127
-0.298672 -0.155592 -0.338752 153 76 0
0.445992 0.068960 -0.335711 127 0 127
-0.169603 0.076445 0.417074 255 0 0
0.005517 0.046904 0.288845 255 0 0
-0.413931 0.046904 0.288517 255 0 0
0.497709 -0.609216 -0.325471 0 127 127
0.400288 -0.539063 0.513016 76 0 153
-0.472388 -0.304251 0.597143 153 0 76
-0.434010 -0.400872 -0.373217 76 153 0
-0.174661 -0.087672 -0.330780 153 76 0
-0.413592 0.597589 -0.338735 153 0 76
0.496673 0.289486 -0.300904 127 0 127
0.277619 0.076445 0.147471 255 0 0
-0.235277 -0.087672 -0.309794 153 76 0
-0.413065 -0.526065 -0.274746 76 153 0
0.268100 0.076445 0.561294 255 0 0
0.495978 -0.274808 -0.337168 0 127 127
-0.375567 -0.173613 0.577022 76 0 153
-0.206080 0.613284 -0.346536 153 76 0
-0.418913 0.076445 0.245772 255 0 0
-0.440126 -0.048477 -0.373055 76 153 0
0.271456 0.046904 0.256889 255 0 0
-0.451909 0.777058 -0.457776 153 0 76
0.408975 -0.103662 -0.274746 0 127 127
0.006073 0.693697 -0.380298 153 76 0
0.321222 0.362595 -0.339644 76 0 153
-0.280011 0.306504 -0.332757 76 0 153
-0.463727 0.124612 -0.280661 0 127 127
0.421474 -0.098089 0.611486 76 0 153
0.335171 0.330011 -0.335643 76 0 153
0.239213 0.502381 -0.334040 76 0 153
-0.242329 0.076445 0.162178 255 0 0
0.304908 0.046904 0.143627 255 0 0
0.487079 -0.047029 0.592854 76 0 153
0.079809 0.076445 -0.131528 255 0 0
0.399336 0.262099 -0.349785 127 0 127
0.479614 0.046904 0.281079 255 0 0
-0.422891 -0.429831 0.461721 153 0 76
-0.419161 0.046904 0.100406 255 0 0
0.463342 -0.423217 -0.098853 204 51 127
-0.461819 0.076445 -0.096822 255 0 0
-0.207829 0.333923 -0.306361 76 0 153
0.009295 0.046904 -0.110694 255 0 0
-0.025390 -0.123620 -0.338752 153 76 0
0.407933 -0.518753 -0.274746 0 127 127
0.485090 -0.136709 0.595122 76 0 153
-0.303249 0.076445 0.094569 255 0 0
-0.150212 0.046904 0.151647 255 0 0
-0.460613 -0.247275 -0.274746 76 153 0
0.312994 0.076445 -0.283169 255 0 0
0.438228 0.076445 -0.017041 255 0 0
-0.388426 -0.133094 0.586124 153 0 76
0.074497 0.046904 -0.243803 255 0 0
0.265633 0.046904 0.427688 255 0 0
-0.067357 0.076445 0.301214 255 0 0
0.399336 0.571394 -0.389461 76 153 0
-0.388426 -0.029704 -0.345526 76 153 0
-0.422891 -0.433912 -0.126010 153 0 76
0.268933 0.046904 0.389589 255 0 0
-0.481676 0.046904 0.494199 255 0 0
0.428879 0.012312 -0.373217 0 127 127
-0.388426 -0.429910 0.565243 153 0 76
0.471082 0.046904 -0.046476 255 0 0
0.303149 0.076445 0.214567 255 0 0
0.399336 0.129564 -0.359712 127 0 127
0.464130 -0.390607 0.608853 76 0 153
-0.366805 -0.092587 0.577022 76 0 153
0.497807 0.065511 -0.323821 127 0 127
0.355710 0.046904 0.485481 255 0 0
-0.440082 0.553628 -0.333337 153 0 76
0.147782 0.461408 -0.322014 76 0 153
-0.271947 0.477245 -0.353721 76 0 153
0.486768 -0.196376 -0.274746 0 127 127
-0.106105 -0.111817 -0.338752 153 76 0
0.397567 -0.186142 0.567005 76 0 153
0.399336 0.025731 0.584098 76 0 153
-0.245928 0.384340 -0.342314 76 0 153
0.433801 -0.454693 0.265240 204 51 127
0.399336 -0.069507 0.533488 76 0 153
-0.078776 0.076445 0.461511 255 0 0
0.198061 0.076445 -0.050685 255 0 0
0.452814 -0.419739 -0.372939 0 127 127
-0.168743 0.076445 -0.012490 255 0 0
-0.486897 -0.300336 0.558341 153 0 76
-0.195534 -0.087672 0.573316 76 0 153
0.287944 0.322355 -0.304940 76 0 153
0.399336 -0.635711 -0.371938 0 127 127
-0.267598 0.076445 0.570356 255 0 0
-0.388426 -0.279920 -0.292590 76 153 0
0.487961 -0.319642 -0.274746 0 127 127
-0.250959 0.076445 -0.014041 255 0 0
0.139566 0.046904 0.046063 255 0 0
-0.166439 0.396521 -0.314047 76 0 153
-0.388426 0.577066 -0.357360 153 0 76
0.105071 0.076445 0.151164 255 0 0
-0.436513 -0.053324 -0.274746 76 153 0
-0.187312 0.046904 0.553593 255 0 0
-0.290108 -0.130158 0.577022 76 0 153
0.436009 -0.379800 0.433931 204 51 127
-0.226780 -0.164355 0.577022 76 0 153
-0.269333 0.076445 0.306832 255 0 0
0.167812 0.046904 0.440423 255 0 0
0.476740 -0.393428 -0.274746 0 127 127
0.108247 0.480947 -0.324413 76 0 153
-0.172537 0.046904 0.274209 255 0 0
-0.320967 -0.093626 -0.338752 153 76 0
-0.304530 0.046904 0.256263 255 0 0
-0.486897 -0.207710 -0.318369 76 153 0
-0.388426 0.140823 -0.282834 0 127 127
-0.251052 0.076445 -0.113902 255 0 0
-0.426807 -0.351789 0.611486 153 0 76
0.257652 -0.107246 0.577022 76 0 153
0.177801 0.046904 -0.292596 255 0 0
-0.388426 -0.590784 -0.290603 76 153 0
-0.486896 0.047111 -0.049942 255 0 0
-0.198798 0.046904 0.300527 255 0 0
0.103120 0.046904 -0.320098 255 0 0
0.276088 0.046904 -0.169510 255 0 0
-0.364483 0.076445 0.304229 255 0 0
-0.388426 -0.144487 0.605330 153 0 76
0.453673 0.076445 0.091569 255 0 0
0.445788 -0.662082 -0.347821 0 127 127
-0.445699 -0.379800 0.311936 153 0 76
-0.456946 0.046904 0.457399 255 0 0
0.497807 -0.488202 -0.317588 0 127 127
-0.439570 -0.478271 0.413221 153 0 76
0.044338 -0.108076 -0.338752 153 76 0
0.474273 0.730498 -0.446888 76 153 0
0.396370 0.046904 0.506806 255 0 0
-0.429629 0.152851 -0.284128 0 127 127
-0.118423 0.057918 -0.373217 255 0 0
0.182840 0.053386 0.611486 255 0 0
0.493478 -0.552932 0.582271 76 0 153
-0.053850 0.659561 -0.376107 153 76 0
0.129327 0.389078 -0.342896 76 0 153
0.384451 0.387101 -0.312890 76 0 153
-0.045264 0.046904 0.069610 255 0 0
-0.289445 -0.163711 0.577022 76 0 153
-0.477231 0.046904 0.332490 255 0 0
0.463342 -0.396545 0.363031 204 51 127
-0.113887 0.465991 -0.322577 76 0 153
0.497807 -0.304464 -0.298863 0 127 127
0.480232 0.245336 -0.382951 127 0 127
0.179502 -0.140784 0.547481 76 0 153
0.384490 0.046904 0.364540 255 0 0
0.324281 0.076445 -0.077138 255 0 0
0.447128 0.076445 0.400847 255 0 0
0.433801 -0.391839 0.101699 204 51 127
-0.452432 -0.423368 0.193579 153 0 76
0.452636 -0.385189 -0.372950 0 127 127
-0.268055 0.076445 -0.091940 255 0 0
0.399336 -0.352747 -0.348768 0 127 127
-0.466987 -0.404559 -0.274746 76 153 0
-0.101140 0.046904 0.466050 255 0 0
0.162743 0.046904 -0.245155 255 0 0
0.296127 0.046904 0.330024 255 0 0
0.405497 0.776187 -0.459873 76 153 0
0.020514 0.067480 -0.373217 255 0 0
0.254901 0.076445 0.413356 255 0 0
0.356394 0.765188 -0.389077 153 76 0
0.116704 -0.186142 0.564714 76 0 153
0.458173 0.076445 0.427737 255 0 0
-0.467968 -0.116392 -0.274746 76 153 0
0.469077 0.046904 0.228759 255 0 0
-0.184305 0.076445 0.254828 255 0 0
0.164099 0.076445 0.558940 255 0 0
-0.389556 0.738665 -0.455267 153 0 76
-0.422891 -0.457448 -0.217732 153 0 76
-0.270301 0.076445 0.216963 255 0 0
0.399336 -0.386957 -0.316992 0 127 127
0.199829 0.076445 -0.165067 255 0 0
-0.486896 0.065148 0.401149 255 0 0
-0.486897 0.032303 0.547453 153 0 76
0.042310 0.046904 0.268955 255 0 0
-0.420571 -0.400415 0.611486 153 0 76
-0.225867 -0.139979 0.577022 76 0 153
-0.439251 0.048907 -0.274746 255 0 0
-0.388426 -0.134056 -0.327161 76 153 0
-0.239417 0.409355 -0.315623 76 0 153
0.491614 -0.595652 0.586050 76 0 153
-0.394197 0.106281 -0.278410 0 127 127
0.000913 0.076445 -0.348032 255 0 0
-0.081220 0.632656 -0.343041 153 76 0
0.214854 0.638769 -0.343791 153 76 0
0.455870 -0.478271 0.105925 204 51 127
-0.164248 0.675002 -0.348240 153 76 0
-0.141983 0.046904 0.109760 255 0 0
-0.311536 0.610541 -0.368879 153 76 0
0.484791 0.584452 -0.420189 76 153 0
0.050663 0.305935 -0.317966 76 0 153
-0.452327 -0.478271 -0.126529 153 0 76
0.463342 -0.466697 0.031958 204 51 127
-0.388426 0.384317 -0.333826 153 0 76
-0.171234 0.076445 0.565881 255 0 0
0.405863 0.806499 -0.364386 76 153 0
-0.094449 0.046904 -0.309801 255 0 0
-0.306604 0.306720 -0.311577 76 0 153
-0.388426 0.146388 -0.356810 0 127 127
-0.215946 0.307036 -0.309002 76 0 153
0.459184 -0.662082 0.582560 76 0 153
-0.411617 0.543097 -0.332044 153 0 76
-0.271586 0.476039 -0.323810 76 0 153
-0.482535 0.408393 -0.385347 153 0 76
0.420028 0.076445 0.364433 255 0 0
-0.475033 -0.555134 0.513016 153 0 76
0.494863 0.146919 -0.349600 127 0 127
0.382309 -0.174844 0.577022 76 0 153
0.117443 -0.109592 -0.338752 153 76 0
0.435716 -0.662082 0.535080 76 0 153
-0.437392 -0.478271 -0.246445 153 0 76
0.279289 0.702392 -0.351603 153 76 0
-0.486897 0.757050 -0.402994 153 0 76
-0.281583 0.076445 -0.194504 255 0 0
0.385314 0.663827 -0.376631 153 76 0
-0.226468 0.046904 0.578278 255 0 0
0.071352 0.076445 0.375496 255 0 0
-0.139682 -0.141174 0.547481 76 0 153
0.087766 0.076445 0.098927 255 0 0
0.399336 0.318432 -0.383357 76 153 0
-0.092257 0.076445 -0.102441 255 0 0
-0.311134 0.631140 -0.342854 153 76 0
-0.154504 0.076445 0.174991 255 0 0
0.463342 -0.433251 0.496070 204 51 127
0.399336 -0.453728 -0.311206 0 127 127
-0.020178 0.076445 -0.362155 255 0 0
-0.456472 -0.195286 0.607749 153 0 76
0.497807 -0.070782 0.544556 76 0 153
-0.437862 0.076445 0.066613 255 0 0
0.062543 0.046904 -0.006116 255 0 0
-0.037874 0.046904 0.569350 255 0 0
0.497807 0.131335 -0.308752 127 0 127
0.399336 -0.369369 0.578767 76 0 153
-0.104471 0.076445 -0.142716 255 0 0
-0.474808 0.076445 -0.155204 255 0 0
0.308726 -0.174103 -0.338752 153 76 0
0.497572 0.772776 -0.413457 76 153 0
-0.388426 -0.360681 -0.277277 76 153 0
0.342552 0.643099 -0.374086 153 76 0
-0.403827 0.533421 -0.430066 153 0 76
-0.486897 -0.267617 0.513160 153 0 76
0.473462 -0.481705 0.604708 76 0 153
-0.470752 0.076445 0.304647 255 0 0
-0.486690 0.584540 -0.389914 153 0 76
-0.430941 -0.662082 0.531927 153 0 76
-0.388936 0.083639 -0.275630 76 153 0
-0.235192 0.046904 0.303516 255 0 0
0.272125 -0.144753 -0.309211 153 76 0
0.254165 0.423949 -0.317415 76 0 153
-0.388426 -0.589949 0.584895 153 0 76
-0.348767 0.076445 -0.323458 255 0 0
-0.429717 0.201540 -0.290106 0 127 127
0.399336 -0.607038 -0.328313 0 127 127
-0.465601 0.691608 -0.440606 153 0 76
0.470769 0.076445 -0.255763 255 0 0
0.399336 -0.631360 -0.293926 0 127 127
0.426620 0.046904 -0.230797 255 0 0
0.326240 0.076445 -0.014271 255 0 0
0.189523 -0.089938 0.577022 76 0 153
-0.462089 -0.554244 0.604984 153 0 76
-0.413504 -0.294411 -0.373217 76 153 0
-0.433130 -0.631514 0.513016 153 0 76
-0.271359 -0.142699 -0.338752 153 76 0
-0.108726 0.620423 -0.371302 153 76 0
-0.335406 0.076445 -0.282006 255 0 0
0.280199 0.757911 -0.388183 153 76 0
-0.382515 0.046904 0.100977 255 0 0
0.476863 -0.399045 0.513016 76 0 153
-0.147468 0.046904 -0.282567 255 0 0
0.338318 -0.106633 -0.309211 153 76 0
0.475580 0.076445 0.174314 255 0 0
0.497807 0.045411 -0.297032 0 127 127
-0.411769 0.076445 0.353096 255 0 0
-0.335866 0.046904 0.011258 255 0 0
-0.406724 -0.132971 0.611486 153 0 76
-0.383822 0.743746 -0.386444 153 76 0
-0.452432 -0.440360 -0.063821 153 0 76
-0.486897 -0.239628 -0.292638 76 153 0
-0.262458 0.046904 0.331160 255 0 0
0.209198 -0.185523 0.577022 76 0 153
-0.486897 0.571607 -0.356558 153 0 76
-0.410700 0.030944 0.611486 153 0 76
-0.439214 -0.100538 0.513016 153 0 76
0.450336 0.076445 -0.214066 255 0 0
0.115265 0.046904 0.515798 255 0 0
-0.403352 -0.511294 0.513016 153 0 76
0.163349 0.046904 0.031192 255 0 0
0.453168 -0.313751 0.513016 76 0 153
0.445869 -0.351270 -0.373217 0 127 127
-0.452432 -0.460105 0.456219 153 0 76
-0.396345 -0.629393 -0.274746 76 153 0
0.301562 0.046904 -0.316917 255 0 0
0.455988 0.076445 0.462802 255 0 0
0.004778 0.046904 0.124335 255 0 0
0.478920 0.403067 -0.403477 76 153 0
-0.044026 0.076445 0.338074 255 0 0
-0.473248 0.647785 -0.344898 153 0 76
-0.047315 -0.186142 0.572232 76 0 153
-0.407410 -0.111769 0.611486 153 0 76
-0.460854 0.308928 -0.396564 153 0 76
-0.244972 0.638559 -0.343765 153 76 0
-0.242168 0.425341 -0.347348 76 0 153
0.399336 0.595884 -0.349815 76 153 0
-0.452432 -0.398457 0.164800 153 0 76
-0.407659 0.417812 -0.415871 153 0 76
-0.388426 -0.177110 -0.321040 76 153 0
0.143702 -0.157859 0.547481 76 0 153
-0.486897 0.497563 -0.353993 153 0 76
0.116662 0.046904 0.172531 255 0 0
-0.228292 0.076445 0.202479 255 0 0
0.336556 0.076445 0.310262 255 0 0
-0.025772 0.651837 -0.345396 153 76 0
-0.265254 0.659233 -0.376067 153 76 0
-0.441881 0.076445 0.579192 153 0 76
-0.388426 -0.468166 0.584620 153 0 76
0.402438 0.076445 0.166103 255 0 0
-0.066412 0.046904 -0.166336 255 0 0
0.423926 -0.173958 -0.274746 0 127 127
-0.486897 0.051713 0.534348 153 0 76
0.174941 0.799796 -0.393326 153 76 0
-0.483163 0.076445 0.473089 255 0 0
-0.342175 -0.154345 0.547481 76 0 153
-0.197649 0.076445 0.094697 255 0 0
0.088199 0.307826 -0.332919 76 0 153
-0.124023 0.046904 -0.038621 255 0 0
-0.486897 -0.226509 0.518752 153 0 76
-0.026821 0.076445 0.283331 255 0 0
-0.117012 -0.160149 -0.309211 153 76 0
-0.422891 -0.441746 0.497031 153 0 76
0.497807 -0.403672 -0.296260 0 127 127
0.367282 0.612697 -0.351317 153 76 0
-0.411127 0.236190 -0.294361 0 127 127
-0.077418 0.739949 -0.356214 153 76 0
-0.351109 0.076445 -0.147799 255 0 0
0.399336 -0.548765 -0.298705 0 127 127
0.182543 0.046904 0.131884 255 0 0
0.222234 0.046904 -0.200564 255 0 0
0.399336 -0.390755 -0.279051 0 127 127
0.001729 0.501067 -0.344742 76 0 153
-0.453989 0.076445 -0.353995 0 127 127
0.104048 0.807621 -0.379793 153 76 0
-0.388426 0.077148 -0.334252 0 127 127
0.497529 -0.313403 0.566480 76 0 153
0.195828 0.046904 0.535168 255 0 0
-0.091628 0.076445 -0.216800 255 0 0
-0.012585 0.613658 -0.343494 153 76 0
-0.394906 0.658814 -0.445462 153 0 76
-0.052631 0.076445 0.106645 255 0 0
-0.457860 -0.294815 -0.368800 76 153 0
-0.388426 -0.541311 -0.364205 76 153 0
-0.267698 0.076445 0.522801 255 0 0
0.225496 0.402573 -0.314790 76 0 153
-0.158575 0.076445 -0.322744 255 0 0
0.204654 0.046904 0.047568 255 0 0
-0.452432 -0.394226 0.278703 153 0 76
0.309155 0.046904 0.563055 255 0 0
-0.443283 0.518285 -0.427836 153 0 76
0.110878 0.076445 0.353690 255 0 0
-0.453345 0.028468 -0.370541 76 153 0
-0.157653 0.305403 -0.322300 76 0 153
0.326862 0.307234 -0.307387 76 0 153
0.016622 0.076445 -0.146252 255 0 0
-0.455016 -0.430515 0.608243 153 0 76
0.399336 -0.601302 -0.351637 0 127 127
0.219111 0.690778 -0.379940 153 76 0
-0.048208 0.046904 -0.286589 255 0 0
0.300114 0.046904 0.237432 255 0 0
-0.469263 -0.361955 0.599883 153 0 76
0.316742 0.076445 0.590603 255 0 0
0.439295 0.513223 -0.328376 76 153 0
0.318610 -0.164531 0.577022 76 0 153
-0.355355 0.076445 0.008833 255 0 0
-0.245496 0.046904 0.271670 255 0 0
-0.358621 0.065590 0.611486 255 0 0
-0.208542 0.046904 0.075955 255 0 0
0.399336 -0.108385 -0.372679 0 127 127
0.491696 0.633902 -0.416608 76 153 0
-0.486897 -0.515510 0.536029 153 0 76
-0.207142 0.674769 -0.377974 153 76 0
0.276008 0.792276 -0.392402 153 76 0
-0.003850 -0.105302 -0.338752 153 76 0
0.170520 0.046904 0.508719 255 0 0
0.495130 0.076445 -0.001643 255 0 0
-0.219757 0.712373 -0.382592 153 76 0
-0.484105 -0.300090 -0.340005 76 153 0
0.415618 -0.029152 0.611486 76 0 153
0.067038 0.806874 -0.385874 153 76 0
-0.483795 -0.504167 -0.274746 76 153 0
0.041422 0.069610 -0.373217 255 0 0
0.412701 -0.460851 0.513016 76 0 153
0.067707 0.727378 -0.354671 153 76 0
-0.388426 -0.235733 0.534193 153 0 76
-0.086712 0.076445 -0.176127 255 0 0
0.453355 0.073913 -0.295369 0 127 127
-0.485241 -0.425394 0.574885 153 0 76
0.178419 -0.100355 0.547481 76 0 153
0.437527 0.046904 0.295080 255 0 0
-0.111765 0.076445 0.310089 255 0 0
0.128558 0.076445 -0.241718 255 0 0
-0.193949 0.076445 0.558743 255 0 0
0.316668 0.356201 -0.309096 76 0 153
-0.107758 0.445123 -0.349777 76 0 153
0.170411 0.076445 0.373796 255 0 0
-0.388426 -0.617964 -0.323605 76 153 0
0.227396 0.760933 -0.358791 153 76 0
0.362758 -0.087672 0.552124 76 0 153
-0.486897 0.229718 -0.310490 0 127 127
0.380454 -0.170857 -0.338752 153 76 0
-0.376592 0.076445 -0.058623 255 0 0
-0.230127 0.076445 0.055258 255 0 0
-0.388426 -0.368083 0.599367 153 0 76
0.192576 -0.123443 -0.338752 153 76 0
0.206790 0.306828 -0.310693 76 0 153
0.490956 0.053032 -0.348980 0 127 127
0.497807 -0.214405 0.533676 76 0 153
0.098205 0.076445 -0.330037 255 0 0
-0.045403 0.076445 0.581721 255 0 0
-0.412268 -0.028544 -0.274746 76 153 0
-0.299140 0.046904 0.504293 255 0 0
0.474648 -0.178244 -0.365646 0 127 127
-0.452432 -0.453463 0.209322 153 0 76
-0.052327 0.076445 -0.060494 255 0 0
-0.451644 -0.478271 0.146109 153 0 76
-0.440632 -0.180161 0.611292 153 0 76
-0.407146 0.259960 -0.297279 0 127 127
0.459600 -0.368624 0.513016 76 0 153
-0.189793 0.046904 0.020160 255 0 0
-0.165068 0.341744 -0.337084 76 0 153
0.419918 0.076445 0.434983 255 0 0
-0.260183 0.046904 0.467631 255 0 0
0.496519 0.549079 -0.332778 76 153 0
-0.340397 0.046904 0.366981 255 0 0
0.206100 -0.167915 -0.309211 153 76 0
-0.025688 0.076445 0.029944 255 0 0
0.344851 -0.135291 -0.338752 153 76 0
-0.225158 0.076445 0.105103 255 0 0
-0.060176 0.046904 -0.190939 255 0 0
0.233171 0.076445 0.404499 255 0 0
0.235705 0.046904 0.562297 255 0 0
0.399336 0.744148 -0.434011 76 153 0
-0.108423 0.046904 0.091246 255 0 0
-0.116539 -0.132355 0.577022 76 0 153
-0.427574 0.023975 0.513016 153 0 76
-0.143919 0.076445 -0.048006 255 0 0
-0.439316 -0.393431 0.513016 153 0 76
-0.268940 0.046904 0.070733 255 0 0
-0.466919 -0.012121 -0.363520 76 153 0
-0.426305 0.071590 -0.314290 0 127 127
-0.216697 0.793682 -0.362812 153 76 0
-0.435376 -0.313020 0.513016 153 0 76
0.067977 0.076445 -0.262617 255 0 0
0.463342 -0.442662 0.291181 204 51 127
0.323880 0.054309 -0.373217 255 0 0
0.455304 0.046904 -0.157197 255 0 0
-0.115964 0.076444 0.611486 255 0 0
-0.400227 0.046904 0.320084 255 0 0
-0.080333 0.499728 -0.355645 76 0 153
0.473173 0.695885 -0.443376 76 153 0
0.404097 0.076445 -0.209839 255 0 0
0.412209 -0.348057 0.513016 76 0 153
0.497807 0.048011 0.195988 255 0 0
0.141422 -0.153582 0.577022 76 0 153
0.399336 -0.023258 0.592948 76 0 153
0.451710 0.565677 -0.334816 76 153 0
0.449170 -0.379800 0.359637 204 51 127
-0.069380 -0.127583 -0.338752 153 76 0
0.463342 -0.423814 0.422417 204 51 127
0.433801 -0.459056 0.323737 204 51 127
0.401997 -0.568711 -0.373217 0 127 127
0.418889 -0.609368 -0.274746 0 127 127
0.497807 -0.126031 -0.278556 0 127 127
0.318294 0.046904 0.102710 255 0 0
0.339422 -0.131649 -0.309211 153 76 0
0.007389 -0.146257 -0.338752 153 76 0
-0.482850 -0.471501 -0.343428 76 153 0
0.399336 -0.552374 0.584485 76 0 153
-0.127669 0.076445 0.577528 255 0 0
-0.362153 0.046904 0.230079 255 0 0
0.493410 0.671032 -0.347752 76 153 0
0.399336 -0.580157 0.516714 76 0 153
0.024373 0.502090 -0.336413 76 0 153
-0.477194 -0.551600 -0.353248 76 153 0
0.033500 0.454068 -0.350876 76 0 153
0.065867 0.046904 -0.163870 255 0 0
-0.413761 -0.200336 0.513016 153 0 76
-0.485713 -0.621095 0.572511 153 0 76
-0.466883 0.076445 -0.117036 255 0 0
0.399336 0.784131 -0.413049 76 153 0
-0.128000 -0.168839 0.547481 76 0 153
-0.486470 0.610170 -0.396388 153 0 76
-0.196729 0.046904 -0.292680 255 0 0
-0.040032 0.076445 -0.020111 255 0 0
-0.388426 -0.333777 0.564590 153 0 76
0.317059 0.688191 -0.379622 153 76 0
0.177607 0.076445 0.243318 255 0 0
0.277679 0.076445 0.190457 255 0 0
-0.220528 0.076445 -0.126148 255 0 0
0.303977 0.483414 -0.324716 76 0 153
