ply
format ascii 1.0
element vertex 1266
property float x
property float y
property float z
property uchar red
property uchar green
property uchar blue
end_header
-0.473209 -0.073598 -0.057994 127 0 127
0.092160 0.415660 -0.607057 255 0 0
0.145397 0.433598 -0.551742 0 255 0
0.284417 0.072301 0.449179 127 0 127
-0.241942 -0.123904 0.214502 127 0 127
-0.009516 0.072301 -0.345461 127 0 127
0.441864 -0.043523 -0.234679 127 0 127
0.027456 -0.287489 -0.557896 0 0 255
0.299561 0.072301 0.237273 127 0 127
-0.115577 -0.123904 -0.309550 127 0 127
0.455536 -0.048632 -0.067189 127 0 127
-0.508992 0.415660 -0.153529 255 0 0
0.541948 -0.663469 0.536988 0 255 0
-0.065970 -0.123904 0.532771 127 0 127
-0.221035 0.072301 0.488704 127 0 127
0.257590 0.447578 -0.502169 0 255 0
0.238714 0.072301 0.010979 127 0 127
0.182910 0.660917 -0.502063 0 255 0
-0.170192 -0.663469 -0.569444 0 255 0
0.413015 -0.647118 -0.380841 0 255 0
0.503877 -0.663469 0.263978 0 255 0
0.376756 -0.123904 0.076051 127 0 127
0.145567 -0.123904 -0.174405 127 0 127
0.364226 -0.123904 -0.243906 127 0 127
0.344831 0.072301 -0.138705 127 0 127
-0.075559 0.399310 -0.612578 255 0 0
0.451250 0.399310 -0.361043 255 0 0
-0.417024 -0.050116 -0.262035 127 0 127
-0.013779 -0.123904 0.357632 127 0 127
0.083360 0.559148 -0.566508 0 255 0
-0.037162 -0.123904 0.065479 127 0 127
-0.508552 0.001634 0.037232 127 0 127
0.124433 0.608985 -0.498574 0 255 0
-0.002417 -0.052128 -0.574131 153 0 76
-0.072517 0.583019 -0.509434 0 255 0
0.190405 0.072301 0.434007 127 0 127
-0.356900 -0.082214 0.571538 127 0 127
-0.425355 0.072301 0.159931 127 0 127
-0.021540 0.334623 -0.590810 153 0 76
-0.113717 -0.044272 0.571538 127 0 127
0.261036 0.072301 0.043964 127 0 127
-0.517020 -0.294774 0.556495 204 51 127
-0.362317 -0.094185 -0.391423 127 0 127
0.395289 -0.123904 0.296190 127 0 127
0.488982 -0.663469 -0.234531 0 255 0
-0.468481 0.399310 -0.344100 255 0 0
-0.548784 -0.529021 0.556495 204 51 127
-0.060735 -0.123904 0.426607 127 0 127
-0.306214 -0.123904 -0.146924 127 0 127
0.374981 0.333908 -0.335779 0 255 0
-0.438684 -0.660310 -0.273681 0 255 0
0.074595 -0.123904 0.249269 127 0 127
-0.183054 0.072301 -0.075639 127 0 127
-0.123480 0.072301 0.424068 127 0 127
-0.413447 0.335854 -0.353708 0 255 0
0.036244 0.072301 -0.097944 127 0 127
-0.571548 0.376616 0.541453 0 127 127
0.354692 0.399310 -0.503262 255 0 0
0.540646 0.399310 0.274254 76 0 153
-0.376708 -0.123904 0.521250 127 0 127
0.399929 0.543801 -0.384373 0 255 0
-0.236364 0.426293 -0.520663 0 255 0
0.134025 0.333908 -0.491886 0 255 0
0.489604 0.064943 -0.001544 127 0 127
0.473529 -0.663469 -0.273063 0 255 0
-0.003667 0.274991 -0.588238 153 0 76
-0.003792 -0.107942 0.540550 127 0 127
-0.172469 0.072301 -0.048156 127 0 127
-0.501453 -0.663469 -0.264549 0 255 0
0.019421 -0.647118 -0.579332 0 255 0
-0.479965 -0.048647 0.170004 127 0 127
0.491997 -0.015985 0.369378 127 0 127
-0.181482 -0.100966 0.540550 127 0 127
0.131752 0.072301 0.259439 127 0 127
0.463410 0.029429 0.318358 127 0 127
0.338451 0.574262 -0.448440 0 255 0
-0.296928 0.422568 -0.405756 0 255 0
-0.479965 -0.001510 0.365551 127 0 127
-0.297646 0.072301 -0.301410 127 0 127
-0.529783 -0.598076 0.556495 204 51 127
0.066963 0.072301 0.091805 127 0 127
-0.032993 -0.100934 -0.572027 153 0 76
-0.469411 0.072301 -0.127147 127 0 127
-0.359538 0.072301 0.368216 127 0 127
0.038889 -0.123904 -0.384846 127 0 127
-0.356700 0.641557 -0.373545 0 255 0
-0.191498 0.482519 -0.540949 0 255 0
0.432156 0.072301 0.298934 127 0 127
-0.547206 -0.647118 -0.159521 0 255 0
-0.075660 -0.123904 0.155573 127 0 127
0.429009 0.466305 -0.333399 0 255 0
-0.013831 -0.123904 0.435392 127 0 127
0.313013 -0.123904 -0.107673 127 0 127
-0.060338 0.660917 -0.525311 0 255 0
0.507953 0.415660 -0.147051 76 0 153
-0.580020 0.403911 0.054598 76 153 0
0.032373 0.593081 -0.512748 0 255 0
-0.451358 -0.123904 0.520479 127 0 127
0.304799 0.569575 -0.472773 0 255 0
-0.554123 0.383940 0.556495 0 127 127
-0.563161 -0.647118 0.206252 0 255 0
0.491997 0.016430 0.182929 127 0 127
0.491997 0.415177 0.489187 76 0 153
-0.525529 0.415660 -0.054116 76 153 0
0.080089 0.072301 0.271498 127 0 127
0.292552 -0.158151 0.556495 255 0 0
-0.323965 0.626824 -0.399867 0 255 0
0.448013 -0.123904 0.083223 127 0 127
0.339284 0.072301 -0.174900 127 0 127
-0.039005 -0.613062 -0.549941 0 0 255
0.507898 0.415660 0.467413 76 0 153
-0.186654 0.639220 -0.480617 0 255 0
0.324397 0.072301 0.029991 127 0 127
0.053747 -0.105379 0.571538 127 0 127
-0.346567 0.333908 -0.432132 0 255 0
-0.154841 0.072301 0.106494 127 0 127
-0.436651 0.415660 -0.396854 255 0 0
-0.507280 -0.023596 -0.014868 127 0 127
0.015993 -0.123904 0.270031 127 0 127
0.180980 0.415660 -0.610956 255 0 0
0.463410 -0.101704 0.524849 127 0 127
-0.199637 0.522431 -0.472344 0 255 0
-0.513542 -0.146000 0.556495 204 51 127
-0.187018 -0.647118 -0.570034 0 255 0
-0.045868 0.072301 -0.007061 127 0 127
0.034164 0.562840 -0.572723 0 255 0
-0.492984 -0.123904 0.261941 127 0 127
0.398476 -0.663469 -0.349603 0 255 0
-0.275047 -0.123904 0.517753 127 0 127
-0.508552 -0.086401 0.451805 127 0 127
-0.130589 0.508750 -0.562569 0 255 0
-0.020307 -0.123904 0.104288 127 0 127
-0.213867 -0.123904 -0.421036 127 0 127
-0.003190 0.008455 -0.561701 153 0 76
0.239174 0.399310 -0.574379 255 0 0
0.117137 -0.163373 0.541453 255 0 0
-0.508552 -0.005400 0.335235 127 0 127
-0.560945 -0.364813 0.541453 204 51 127
0.016154 0.072301 0.320975 127 0 127
0.053397 -0.123904 0.250861 127 0 127
-0.192652 0.333908 -0.512426 0 255 0
0.245014 -0.123904 0.351613 127 0 127
0.545451 0.075661 0.556495 153 0 76
0.033728 0.496330 -0.572737 0 255 0
0.416195 0.072301 -0.043356 127 0 127
-0.289797 -0.072635 0.540550 127 0 127
-0.290440 0.415660 -0.524685 255 0 0
-0.102567 0.072301 -0.458486 127 0 127
-0.012174 0.072301 0.177502 127 0 127
-0.435540 0.541637 -0.356712 0 255 0
0.241236 -0.123904 0.055785 127 0 127
0.508935 0.415660 0.417940 76 0 153
0.463410 -0.018819 0.367065 127 0 127
0.471940 0.066065 -0.143981 127 0 127
-0.479965 0.059280 0.435647 127 0 127
-0.441545 0.072301 0.220242 127 0 127
0.296599 0.072301 -0.273244 127 0 127
-0.304406 0.072301 0.204734 127 0 127
0.383317 0.072301 -0.184422 127 0 127
0.035015 -0.165654 0.556495 255 0 0
-0.306904 -0.020914 -0.398877 127 0 127
-0.165124 0.072301 0.378679 127 0 127
-0.124943 0.415660 -0.625930 255 0 0
-0.018283 -0.123904 -0.067158 127 0 127
0.223388 -0.062784 0.540550 127 0 127
-0.175336 0.072301 0.184708 127 0 127
-0.387002 -0.109234 -0.305649 127 0 127
0.563464 -0.648838 0.133011 0 255 0
0.009878 0.072301 -0.238602 127 0 127
0.476491 0.016973 -0.132059 127 0 127
0.188688 -0.123904 0.156243 127 0 127
0.032195 0.072301 -0.127076 127 0 127
0.163695 -0.098751 -0.479940 127 0 127
-0.030631 -0.175346 -0.568817 0 0 255
-0.479965 0.025826 0.457805 127 0 127
0.432594 -0.123904 -0.022142 127 0 127
0.552170 -0.647118 -0.024349 0 255 0
-0.539594 -0.647118 -0.057478 0 255 0
0.511352 -0.647118 0.022166 0 255 0
-0.400398 0.072301 0.392861 127 0 127
0.058730 0.598704 -0.569807 0 255 0
0.454111 -0.663469 -0.329124 0 255 0
-0.193979 0.072301 0.056191 127 0 127
-0.430662 -0.064738 -0.294875 127 0 127
0.124534 0.573127 -0.498037 0 255 0
0.523614 -0.111182 0.556495 153 0 76
-0.097287 0.072301 0.121972 127 0 127
0.495870 0.319950 0.541453 153 0 76
0.250479 -0.193134 0.556495 255 0 0
0.072180 -0.123904 0.460590 127 0 127
0.159490 0.070264 -0.481827 127 0 127
-0.361622 0.459982 -0.435516 0 255 0
0.058662 0.024457 0.571538 127 0 127
0.220663 -0.647118 -0.553453 0 255 0
0.396213 -0.123904 -0.133941 127 0 127
0.515369 -0.647118 0.151289 0 255 0
0.276859 0.569672 -0.494142 0 255 0
0.268806 -0.647118 -0.489080 0 255 0
-0.457111 0.468499 -0.317751 0 255 0
-0.558075 -0.114681 0.556495 204 51 127
-0.026062 0.412177 -0.576093 255 0 0
0.026528 0.072301 -0.163175 127 0 127
0.418239 0.415660 -0.410167 255 0 0
0.552764 0.415660 0.179439 76 0 153
-0.053202 0.072301 -0.462094 127 0 127
0.147828 0.072301 0.455570 127 0 127
0.315575 0.072301 0.533607 127 0 127
-0.151916 0.072301 -0.157567 127 0 127
0.463410 0.011977 0.040866 127 0 127
0.390392 -0.105218 -0.277473 127 0 127
-0.091662 -0.123904 0.233811 127 0 127
-0.141329 -0.106531 -0.497415 127 0 127
0.084978 -0.092699 0.540550 127 0 127
0.463410 -0.102210 0.197603 127 0 127
-0.461162 -0.123904 0.277488 127 0 127
0.217384 -0.121352 -0.455833 127 0 127
-0.564284 0.135778 0.541453 0 127 127
-0.472628 0.065152 -0.062771 127 0 127
0.491478 0.060289 0.064320 127 0 127
0.239963 0.477860 -0.513096 0 255 0
0.491997 0.046942 0.105726 127 0 127
0.114025 -0.041715 -0.533632 127 0 127
-0.459326 -0.021392 -0.151333 127 0 127
-0.508552 0.399665 0.032426 76 153 0
0.191843 -0.663469 -0.505561 0 255 0
-0.185225 0.072301 -0.276242 127 0 127
0.268910 -0.162460 0.541453 255 0 0
-0.300230 -0.154584 0.556495 255 0 0
-0.018124 0.095651 -0.565462 153 0 76
0.197419 0.581044 -0.469035 0 255 0
0.460420 0.044028 -0.026984 127 0 127
0.487385 -0.117397 0.138676 127 0 127
0.231588 0.367512 -0.442906 0 255 0
-0.174102 0.072003 -0.502474 127 0 127
-0.041574 0.058378 0.571350 127 0 127
0.143197 -0.123904 0.091824 127 0 127
0.273863 -0.123904 0.333734 127 0 127
-0.479965 0.000452 0.233698 127 0 127
0.491997 -0.037674 0.144779 127 0 127
0.072710 -0.123904 0.314656 127 0 127
-0.245361 0.072301 -0.258869 127 0 127
-0.037065 0.019990 -0.515722 127 0 127
-0.285206 0.072301 -0.432952 127 0 127
-0.329783 -0.020360 -0.418906 127 0 127
-0.401176 0.415660 -0.389316 0 255 0
0.458474 -0.001910 -0.043006 127 0 127
0.470712 -0.048446 0.571538 127 0 127
-0.454475 -0.053833 0.540550 127 0 127
0.072701 0.415660 -0.625869 255 0 0
-0.462798 0.072301 -0.159770 127 0 127
0.467923 0.399310 -0.291946 255 0 0
-0.251939 0.052432 0.540550 127 0 127
0.275932 0.040937 0.571538 127 0 127
0.158254 0.015781 -0.515923 127 0 127
0.300605 0.415721 -0.390893 0 255 0
-0.014562 0.072301 0.537196 127 0 127
0.463410 0.070658 0.228994 127 0 127
-0.034692 0.227291 -0.586181 153 0 76
-0.184695 0.576317 -0.545462 0 255 0
-0.467099 0.399310 -0.401948 255 0 0
0.073768 -0.123904 -0.238072 127 0 127
0.563464 0.410304 0.508922 76 0 153
0.030913 0.072301 -0.411273 127 0 127
0.076817 -0.024170 -0.538942 127 0 127
0.035938 0.054407 0.540550 127 0 127
0.108247 0.415660 -0.625592 255 0 0
0.115588 0.435813 -0.499679 0 255 0
-0.508552 -0.085245 0.377822 127 0 127
0.073950 -0.079073 0.571538 127 0 127
-0.007707 -0.024914 -0.551004 127 0 127
0.463410 0.009611 0.522319 127 0 127
0.178622 0.072301 0.414446 127 0 127
-0.406456 0.071507 -0.311292 127 0 127
0.136437 0.072301 -0.104179 127 0 127
-0.153575 -0.123904 0.247179 127 0 127
-0.339817 0.399310 -0.506294 255 0 0
0.382942 -0.106119 -0.338901 127 0 127
0.247936 0.637488 -0.444757 0 255 0
0.186046 0.045953 0.540550 127 0 127
0.365858 -0.113574 -0.312132 127 0 127
-0.508552 -0.046378 0.215305 127 0 127
0.178378 -0.123904 -0.121211 127 0 127
0.494431 -0.173486 0.541453 153 0 76
0.464070 0.072301 0.107503 127 0 127
0.130272 -0.191358 0.541453 255 0 0
0.525920 0.415660 0.332671 76 0 153
-0.467537 0.072301 0.550352 127 0 127
-0.511984 0.399310 0.483763 76 153 0
0.026985 -0.663469 -0.588513 0 255 0
-0.479965 0.024570 0.030579 127 0 127
0.500207 -0.647118 -0.140068 0 255 0
0.386499 0.539467 -0.400535 0 255 0
0.456317 0.024588 -0.060766 127 0 127
0.267867 0.072301 -0.158870 127 0 127
-0.393974 0.410459 -0.293577 0 255 0
-0.072950 0.060388 0.570943 127 0 127
0.463410 -0.009421 0.314626 127 0 127
-0.367011 0.626532 -0.444572 0 255 0
0.460793 0.072301 0.348058 127 0 127
-0.418653 -0.122246 -0.293487 127 0 127
0.211742 0.072301 0.189245 127 0 127
0.362452 0.072301 -0.098285 127 0 127
-0.554995 0.399310 0.119368 76 153 0
-0.318301 0.053606 0.571538 127 0 127
-0.359166 -0.006296 0.540550 127 0 127
-0.201728 0.072301 -0.241499 127 0 127
-0.540971 -0.647118 0.010305 0 255 0
0.138310 -0.123904 0.215529 127 0 127
0.013924 0.072301 0.154008 127 0 127
0.083482 0.072301 0.009069 127 0 127
-0.531563 0.088789 0.556495 0 127 127
-0.363770 -0.020236 -0.338468 127 0 127
0.508714 -0.388126 0.556495 153 0 76
0.499029 -0.647118 0.294066 0 255 0
-0.022200 0.488839 -0.515939 0 255 0
0.297312 0.531039 -0.475242 0 255 0
0.541795 -0.647118 0.162797 0 255 0
-0.107777 -0.061509 -0.505631 127 0 127
-0.552069 0.165761 0.556495 0 127 127
-0.279253 -0.028380 0.540550 127 0 127
-0.010804 0.531502 -0.578239 0 255 0
0.498149 -0.507987 0.556495 153 0 76
-0.553568 0.347373 0.556495 0 127 127
-0.269902 0.622019 -0.512562 0 255 0
-0.269686 0.431722 -0.505094 0 255 0
-0.558249 0.042461 0.556495 0 127 127
0.563464 0.404125 0.387260 76 0 153
-0.092562 -0.663469 -0.554862 0 255 0
0.435136 0.521185 -0.334956 0 255 0
0.408661 -0.123904 0.433550 127 0 127
-0.508552 -0.022353 0.379498 127 0 127
0.273654 0.067878 -0.412763 127 0 127
0.366655 0.333908 -0.296061 0 255 0
0.390049 0.399310 -0.396056 0 255 0
0.363784 0.578743 -0.334385 0 255 0
0.073143 0.399310 -0.641998 255 0 0
0.557265 0.399310 0.315386 76 0 153
0.253702 0.562635 -0.436810 0 255 0
0.310139 0.652191 -0.399822 0 255 0
0.330522 0.351227 -0.347876 0 255 0
0.285667 -0.051017 -0.441830 127 0 127
-0.034076 -0.144933 0.556495 255 0 0
-0.035648 -0.123904 -0.169010 127 0 127
-0.322998 0.072301 -0.119336 127 0 127
-0.181795 0.025005 0.571538 127 0 127
0.138995 -0.123904 -0.203676 127 0 127
0.431154 0.072301 0.103831 127 0 127
-0.226937 0.072301 0.103968 127 0 127
0.327553 0.072301 -0.241340 127 0 127
0.351516 0.020646 0.540550 127 0 127
-0.567608 0.399310 0.488880 76 153 0
0.095644 0.072301 -0.383716 127 0 127
0.306081 0.415660 -0.496675 255 0 0
-0.082294 0.660917 -0.556153 0 255 0
-0.292088 0.072301 0.221921 127 0 127
-0.573155 -0.647118 0.428706 0 255 0
0.069011 0.660917 -0.530006 0 255 0
0.362734 -0.005886 -0.367447 127 0 127
-0.506567 0.064246 0.462174 127 0 127
0.108331 0.333908 -0.547154 0 255 0
-0.546315 0.250613 0.541453 0 127 127
0.481255 -0.103787 -0.092839 127 0 127
0.412928 0.399310 -0.340123 255 0 0
-0.330621 0.072301 0.084148 127 0 127
-0.158423 -0.123904 0.131124 127 0 127
-0.019420 -0.168987 0.556495 255 0 0
0.361788 0.555253 -0.429800 0 255 0
-0.490039 -0.085508 0.571538 127 0 127
-0.479965 -0.039531 0.238468 127 0 127
0.509816 0.399310 0.509984 76 0 153
-0.364893 -0.121072 -0.372702 127 0 127
-0.531483 0.177930 0.556495 0 127 127
0.094703 -0.123904 0.500391 127 0 127
0.311382 -0.663469 -0.430873 0 255 0
0.543628 0.037551 0.556495 153 0 76
0.175255 0.072301 0.244148 127 0 127
-0.314456 -0.105232 0.540550 127 0 127
0.553140 -0.042591 0.541453 153 0 76
0.423330 0.660318 -0.267307 0 255 0
-0.040320 0.358327 -0.591832 153 0 76
-0.508552 0.020990 0.328530 127 0 127
0.403592 -0.123904 0.370464 127 0 127
-0.567229 -0.647118 0.358983 0 255 0
0.062149 -0.123904 -0.208128 127 0 127
-0.333764 0.484209 -0.382667 0 255 0
0.216695 0.333908 -0.473399 0 255 0
0.551214 -0.621113 0.541453 153 0 76
0.286979 0.072301 -0.377209 127 0 127
0.322514 0.619344 -0.388916 0 255 0
-0.521346 0.334429 0.556495 0 127 127
-0.179900 -0.068604 0.540550 127 0 127
-0.397878 0.371106 -0.279244 0 255 0
0.463410 0.012482 0.171739 127 0 127
0.129324 -0.123904 0.420858 127 0 127
-0.556564 0.415660 0.233525 76 153 0
-0.557995 0.399528 -0.214913 255 0 0
0.215258 0.660917 -0.500837 0 255 0
-0.113702 -0.108280 -0.535841 127 0 127
-0.051347 0.072301 0.231589 127 0 127
-0.567156 -0.647118 0.241640 0 255 0
0.523960 -0.156261 0.556495 153 0 76
0.484816 -0.120053 0.281125 127 0 127
-0.445706 0.001029 -0.267949 127 0 127
0.293168 0.072301 -0.061500 127 0 127
-0.479965 0.059565 0.177649 127 0 127
0.138812 -0.123904 -0.005974 127 0 127
0.134914 0.072301 -0.223127 127 0 127
-0.543315 -0.647118 -0.034755 0 255 0
0.463410 -0.075239 0.492384 127 0 127
0.563221 -0.647118 0.446169 0 255 0
0.048720 0.072301 0.341671 127 0 127
-0.339693 -0.123904 0.043498 127 0 127
-0.410283 -0.663469 -0.363825 0 255 0
0.218295 0.072301 0.466875 127 0 127
0.339738 0.072301 0.017766 127 0 127
0.085593 0.565701 -0.505986 0 255 0
0.207889 0.333908 -0.503413 0 255 0
-0.077594 -0.663469 -0.582477 0 255 0
0.104243 0.386758 -0.563019 255 0 0
-0.422675 -0.029577 0.540550 127 0 127
0.483402 -0.054637 -0.075161 127 0 127
0.160312 -0.123904 0.117301 127 0 127
-0.219626 0.399310 -0.544789 255 0 0
-0.396029 0.549483 -0.313078 0 255 0
0.292266 -0.123904 -0.224911 127 0 127
0.463410 -0.057090 0.438486 127 0 127
-0.479965 -0.084954 0.265816 127 0 127
-0.215018 0.047049 0.571538 127 0 127
-0.078816 -0.123904 -0.524432 127 0 127
0.491997 -0.647668 0.192371 0 255 0
0.044269 -0.647118 -0.539416 0 255 0
0.536887 -0.647118 0.501916 0 255 0
0.507080 0.059537 0.541453 153 0 76
0.022050 -0.251948 -0.550472 0 0 255
-0.150390 0.072301 0.021985 127 0 127
-0.044819 0.399310 -0.600498 153 0 76
0.563464 -0.661435 0.035162 0 255 0
-0.361507 0.072301 -0.258876 127 0 127
-0.508735 -0.647118 0.304162 0 255 0
0.359755 0.072301 0.155709 127 0 127
-0.029490 0.022148 -0.577334 153 0 76
-0.191168 -0.123904 0.267090 127 0 127
0.166200 0.072301 0.071558 127 0 127
-0.272345 0.581761 -0.434600 0 255 0
0.224432 0.650443 -0.459491 0 255 0
-0.285763 0.651675 -0.429655 0 255 0
0.508911 -0.075930 0.556495 153 0 76
-0.302094 0.072301 0.362122 127 0 127
-0.496044 0.415660 -0.319438 255 0 0
-0.047028 0.548506 -0.573676 0 255 0
-0.095478 -0.142214 0.541453 255 0 0
0.463410 -0.030564 0.134724 127 0 127
-0.157852 -0.094415 -0.523537 127 0 127
-0.078323 0.598491 -0.569735 0 255 0
0.001043 0.039132 -0.563024 127 0 127
-0.168951 0.072301 0.521125 127 0 127
0.097872 -0.123904 -0.122930 127 0 127
-0.107680 0.072301 0.272030 127 0 127
-0.279684 -0.123904 -0.175705 127 0 127
-0.016806 -0.157404 -0.569591 0 0 255
-0.254232 -0.123904 -0.303616 127 0 127
-0.004007 -0.123904 0.146232 127 0 127
-0.408389 -0.123904 0.183392 127 0 127
-0.508552 0.027766 0.445100 127 0 127
-0.380421 -0.123904 0.051877 127 0 127
0.560866 -0.546517 0.541453 153 0 76
0.441867 0.573876 -0.335287 0 255 0
-0.250325 -0.123904 -0.280656 127 0 127
0.519858 -0.647118 0.429695 0 255 0
-0.343432 -0.123904 -0.003441 127 0 127
-0.580020 -0.350018 0.555320 204 51 127
0.538377 -0.663469 0.061878 0 255 0
-0.397323 0.014404 0.571538 127 0 127
0.491997 -0.001685 0.173533 127 0 127
0.019697 0.415660 -0.612105 255 0 0
0.466961 -0.123904 0.255063 127 0 127
0.478684 0.061574 -0.106534 127 0 127
-0.291200 -0.647118 -0.528547 0 255 0
-0.425291 0.072301 0.101890 127 0 127
-0.022591 0.279103 -0.573373 153 0 76
0.444784 0.053983 0.540550 127 0 127
0.350518 0.072301 -0.048939 127 0 127
0.411324 -0.118542 0.565462 127 0 127
0.189445 -0.055058 0.540550 127 0 127
-0.243722 -0.123904 0.011036 127 0 127
0.140835 -0.054104 0.540550 127 0 127
0.463410 -0.010436 0.150325 127 0 127
0.096546 0.614554 -0.565123 0 255 0
-0.421679 0.399310 -0.363522 0 255 0
0.238104 0.399310 -0.525735 255 0 0
-0.479965 0.025546 0.396524 127 0 127
-0.479965 -0.003872 0.531609 127 0 127
-0.186276 -0.123904 -0.330945 127 0 127
0.458248 0.066880 -0.044860 127 0 127
-0.437033 0.338846 -0.321803 0 255 0
-0.451203 -0.123904 0.079280 127 0 127
0.000126 0.415660 -0.650872 255 0 0
-0.533464 -0.663469 0.171621 0 255 0
0.170552 0.415660 -0.563507 255 0 0
-0.510523 -0.388952 0.541453 204 51 127
0.491997 -0.570535 0.550848 153 0 76
0.352108 0.447700 -0.428376 0 255 0
-0.329311 0.415660 -0.542322 255 0 0
0.311757 -0.123904 -0.287020 127 0 127
-0.093394 -0.123904 0.144986 127 0 127
0.463410 -0.109746 0.162782 127 0 127
-0.031232 0.257953 -0.572461 153 0 76
0.174403 0.605658 -0.543171 0 255 0
0.182041 0.072301 0.477343 127 0 127
-0.378342 0.660917 -0.364799 0 255 0
0.491997 0.036176 0.357642 127 0 127
-0.091008 -0.123904 0.328400 127 0 127
-0.146300 0.660917 -0.531601 0 255 0
0.309019 0.072301 0.419796 127 0 127
-0.098448 0.449038 -0.566695 0 255 0
-0.508552 -0.082149 0.220433 127 0 127
-0.039840 0.046917 -0.515326 127 0 127
0.544380 -0.453291 0.541453 153 0 76
-0.467914 0.399310 -0.367367 255 0 0
0.463410 0.028299 0.456577 127 0 127
0.121532 -0.123904 0.439026 127 0 127
-0.016400 -0.123904 -0.262007 127 0 127
-0.024191 -0.631566 -0.549143 0 0 255
-0.314027 0.354907 -0.388255 0 255 0
-0.571104 -0.647118 0.321800 0 255 0
0.099224 0.594831 -0.564688 0 255 0
-0.423185 0.399310 -0.392475 255 0 0
0.151545 0.350553 -0.482707 0 255 0
0.328978 0.006475 0.571538 127 0 127
-0.298035 0.072301 -0.369461 127 0 127
-0.484355 0.072301 0.357743 127 0 127
-0.479965 0.057364 0.148253 127 0 127
-0.510483 -0.193381 0.541453 204 51 127
0.532207 0.415660 -0.231060 255 0 0
0.459556 -0.647118 -0.182219 0 255 0
-0.423907 0.603762 -0.282368 0 255 0
-0.227661 -0.647118 -0.536473 0 255 0
0.326090 0.072301 -0.268849 127 0 127
0.460325 0.029756 -0.186369 127 0 127
0.528328 0.415660 0.440383 76 0 153
-0.070720 0.072301 0.014511 127 0 127
-0.287091 0.029892 0.540550 127 0 127
-0.530203 0.415660 0.126618 76 153 0
0.477215 0.399310 -0.202236 255 0 0
0.063958 0.072301 0.496996 127 0 127
0.562924 -0.577866 0.541453 153 0 76
-0.276069 0.072301 0.520150 127 0 127
0.017658 -0.037898 -0.516129 127 0 127
-0.511335 -0.647118 -0.026159 0 255 0
-0.060280 -0.663469 -0.544356 0 255 0
-0.263477 -0.110755 -0.434998 127 0 127
-0.559157 -0.193291 0.541453 204 51 127
-0.523721 0.364120 0.541453 0 127 127
-0.579903 0.158988 0.541453 0 127 127
0.327686 0.526291 -0.452538 0 255 0
0.166382 0.072301 -0.262408 127 0 127
-0.129551 0.072301 0.244859 127 0 127
-0.543603 -0.517567 0.541453 204 51 127
-0.120361 -0.123904 0.202113 127 0 127
0.463410 -0.103346 0.041513 127 0 127
0.516316 -0.608434 0.556495 153 0 76
0.544201 -0.647118 0.216883 0 255 0
-0.405044 -0.123904 0.452896 127 0 127
0.071984 0.044200 -0.508377 127 0 127
-0.580020 0.414850 -0.037931 76 153 0
0.535153 -0.663469 0.377618 0 255 0
0.491997 -0.033110 0.520902 127 0 127
-0.452858 0.072301 0.075889 127 0 127
-0.064843 -0.123904 0.474210 127 0 127
-0.151514 -0.661604 -0.509447 0 255 0
-0.479965 -0.090791 0.133134 127 0 127
-0.547632 -0.663469 -0.091471 0 255 0
0.443511 0.415660 -0.344836 255 0 0
-0.294757 -0.123904 0.393391 127 0 127
0.442602 -0.045559 -0.151775 127 0 127
0.353426 -0.123904 0.172802 127 0 127
0.189599 -0.123904 -0.077317 127 0 127
0.227545 0.565972 -0.455923 0 255 0
-0.511222 0.399310 0.349470 76 153 0
-0.231881 -0.090811 0.571538 127 0 127
-0.062544 0.055861 -0.512086 127 0 127
-0.512761 -0.488928 0.556495 204 51 127
-0.430723 -0.093671 -0.294790 127 0 127
-0.133600 -0.087405 -0.500885 127 0 127
-0.336798 -0.123904 -0.309167 127 0 127
0.458230 -0.113538 -0.045009 127 0 127
0.108128 0.072301 -0.250353 127 0 127
-0.240465 -0.016999 0.571538 127 0 127
0.276265 0.426815 -0.485808 0 255 0
0.426309 -0.030036 -0.194411 127 0 127
0.503516 -0.138029 0.541453 153 0 76
-0.539954 -0.455612 0.541453 204 51 127
-0.220508 -0.123904 0.247366 127 0 127
0.150419 0.455624 -0.485563 0 255 0
-0.579626 -0.033650 0.541453 0 127 127
0.353948 0.352439 -0.415681 0 255 0
0.456901 -0.074107 -0.055952 127 0 127
-0.350885 0.072301 0.515668 127 0 127
-0.380660 0.658196 -0.345653 0 255 0
0.284964 0.072301 0.372629 127 0 127
0.385321 0.660917 -0.404881 0 255 0
0.409249 0.072301 0.275955 127 0 127
-0.257690 -0.123904 -0.153726 127 0 127
-0.456562 -0.093054 -0.239540 127 0 127
-0.128347 0.531843 -0.502176 0 255 0
-0.403208 -0.148699 0.556495 255 0 0
-0.169921 -0.663469 -0.546824 0 255 0
0.321297 -0.067415 0.571538 127 0 127
0.269493 0.000319 0.571538 127 0 127
0.449383 0.399310 -0.387953 255 0 0
-0.527880 0.415660 -0.206853 255 0 0
0.343320 0.364945 -0.332122 0 255 0
0.169643 -0.059443 -0.477269 127 0 127
0.424386 0.410670 -0.304500 0 255 0
-0.574358 0.415660 -0.011282 76 153 0
-0.508552 -0.003772 0.208938 127 0 127
0.489826 -0.018160 -0.022271 127 0 127
0.065983 -0.137926 0.541453 255 0 0
0.029800 -0.123904 -0.147470 127 0 127
0.113277 -0.108472 -0.502484 127 0 127
0.324216 -0.647118 -0.414877 0 255 0
0.263395 -0.663469 -0.478017 0 255 0
-0.479965 0.032571 0.117747 127 0 127
0.430281 0.598282 -0.353869 0 255 0
-0.274398 0.362711 -0.497465 0 255 0
-0.442637 -0.057991 -0.195006 127 0 127
0.247121 -0.123904 0.110121 127 0 127
0.348524 0.001075 -0.387521 127 0 127
-0.416143 0.660917 -0.334430 0 255 0
0.335954 -0.123904 0.249308 127 0 127
-0.561419 0.399310 -0.060256 76 153 0
-0.408341 0.405553 -0.266090 0 255 0
-0.571293 0.216226 0.556495 0 127 127
0.203747 0.072301 0.549038 127 0 127
-0.580020 0.415498 0.282285 76 153 0
-0.361818 0.072301 0.264229 127 0 127
-0.195290 -0.123904 0.125424 127 0 127
0.356326 -0.123904 0.556004 127 0 127
-0.228869 0.028353 -0.458110 127 0 127
-0.423646 0.072301 0.013182 127 0 127
-0.577001 -0.212675 0.541453 204 51 127
-0.081944 0.072301 -0.048811 127 0 127
-0.024051 0.072301 0.194091 127 0 127
-0.064323 -0.123904 0.315372 127 0 127
-0.091392 0.422156 -0.506353 0 255 0
0.483880 -0.085892 -0.071222 127 0 127
0.385733 0.558553 -0.304071 0 255 0
-0.380883 -0.663469 -0.420984 0 255 0
0.170147 0.072301 0.106728 127 0 127
-0.467752 0.014619 -0.210256 127 0 127
-0.532188 0.415660 0.179883 76 153 0
0.045138 -0.123904 -0.043878 127 0 127
0.491997 -0.650105 0.413568 0 255 0
-0.148013 -0.087724 0.540550 127 0 127
0.463285 -0.123904 0.121487 127 0 127
-0.508552 0.015558 0.261218 127 0 127
0.095806 0.072301 0.117821 127 0 127
0.067183 -0.101486 0.540550 127 0 127
0.491997 -0.030049 0.099408 127 0 127
-0.043829 0.333908 -0.556330 0 255 0
-0.232959 0.072301 -0.341894 127 0 127
-0.044012 -0.141370 -0.556875 0 0 255
0.319428 0.072191 -0.374690 127 0 127
0.347845 0.072301 0.102752 127 0 127
0.006405 0.069744 -0.579387 153 0 76
-0.411138 0.072301 0.146849 127 0 127
0.308411 0.072301 -0.101812 127 0 127
-0.508359 0.058493 0.501440 127 0 127
-0.368388 0.433998 -0.332448 0 255 0
-0.191441 -0.009778 0.540550 127 0 127
0.056532 -0.123904 -0.311898 127 0 127
0.478852 0.399310 -0.267197 255 0 0
0.082676 -0.663469 -0.563029 0 255 0
-0.566364 0.415660 0.306280 76 153 0
-0.357484 -0.647118 -0.442792 0 255 0
0.429389 -0.071419 -0.267326 127 0 127
-0.149583 -0.123904 0.080511 127 0 127
-0.479965 -0.037851 0.484282 127 0 127
-0.545168 -0.647118 0.298201 0 255 0
0.560956 -0.644542 0.556495 153 0 76
0.540744 -0.592061 0.541453 153 0 76
0.129489 -0.123904 -0.230122 127 0 127
-0.066048 -0.123904 -0.117484 127 0 127
-0.261714 0.026079 -0.436464 127 0 127
-0.479965 0.019028 0.275478 127 0 127
0.450237 0.072301 0.012388 127 0 127
0.296797 0.367992 -0.465599 0 255 0
0.108367 0.429711 -0.562714 0 255 0
0.510951 -0.647118 -0.019644 0 255 0
-0.220313 0.072301 -0.104955 127 0 127
-0.125725 -0.029657 -0.503070 127 0 127
0.540156 -0.652278 0.556495 0 255 0
-0.060830 -0.049541 -0.543586 127 0 127
-0.049690 0.503957 -0.573341 0 255 0
0.131982 0.407227 -0.555871 255 0 0
-0.460177 0.561295 -0.329237 0 255 0
0.273425 -0.123904 0.249640 127 0 127
0.161157 -0.123904 -0.082638 127 0 127
-0.190136 -0.123904 0.001592 127 0 127
0.097231 -0.647118 -0.558902 0 255 0
-0.072877 0.565096 -0.570421 0 255 0
0.227226 -0.123904 0.436168 127 0 127
0.100920 -0.035958 0.571538 127 0 127
-0.145494 -0.123904 -0.302513 127 0 127
0.491997 -0.038542 0.056003 127 0 127
0.472196 -0.123904 0.307167 127 0 127
-0.050803 -0.121606 -0.534935 127 0 127
-0.239957 -0.123904 0.065160 127 0 127
0.375302 0.050659 0.540550 127 0 127
-0.510591 -0.331342 0.556495 204 51 127
-0.136726 0.029254 0.540550 127 0 127
0.441019 -0.079268 0.540550 127 0 127
0.231460 0.069216 -0.447858 127 0 127
0.491997 0.287676 0.554115 153 0 76
0.463410 0.029325 0.275928 127 0 127
-0.508552 -0.049422 0.393068 127 0 127
-0.510708 -0.647118 0.367695 0 255 0
-0.508552 0.017467 0.049602 127 0 127
-0.100629 -0.203945 0.541453 255 0 0
0.370970 -0.096648 0.571538 127 0 127
-0.164072 0.625728 -0.489340 0 255 0
-0.144031 -0.123904 -0.065625 127 0 127
-0.248857 0.432777 -0.445131 0 255 0
0.247971 0.072301 0.496586 127 0 127
0.443761 -0.123904 0.224403 127 0 127
0.144566 -0.123548 0.557217 127 0 127
-0.381075 0.072301 0.018928 127 0 127
-0.258921 0.624274 -0.447455 0 255 0
-0.397726 -0.647118 -0.424945 0 255 0
0.301905 -0.663469 -0.475736 0 255 0
-0.523328 -0.647118 0.499896 0 255 0
-0.479965 -0.110384 0.314882 127 0 127
-0.041880 -0.419875 -0.558272 0 0 255
-0.547230 -0.663469 0.339429 0 255 0
0.439021 0.490316 -0.308968 0 255 0
-0.069735 -0.123904 0.072372 127 0 127
-0.204263 0.068848 -0.496224 127 0 127
0.402714 0.072301 0.084440 127 0 127
0.374712 -0.123904 0.174219 127 0 127
0.377424 -0.647118 -0.429605 0 255 0
0.171938 -0.136769 0.556495 255 0 0
-0.502896 -0.091817 -0.050963 127 0 127
0.365237 0.072301 0.455142 127 0 127
0.285883 -0.071127 -0.441650 127 0 127
-0.043686 -0.123904 -0.121587 127 0 127
-0.502905 -0.172012 0.541453 204 51 127
-0.399043 0.030706 -0.339542 127 0 127
-0.545879 0.415660 0.111570 76 153 0
0.487264 -0.663469 -0.288746 0 255 0
0.026248 -0.002940 -0.514904 127 0 127
0.388458 -0.000640 -0.280205 127 0 127
0.149169 0.399310 -0.607357 255 0 0
0.491997 -0.050107 0.229060 127 0 127
0.003372 0.072301 0.445195 127 0 127
0.416765 0.071927 0.559181 127 0 127
0.020210 -0.123904 -0.484903 127 0 127
0.277592 -0.123904 0.292745 127 0 127
-0.312854 -0.123904 0.005953 127 0 127
-0.042698 -0.123904 -0.247964 127 0 127
-0.210600 -0.123904 0.112557 127 0 127
-0.518797 0.399310 0.140102 76 153 0
-0.414252 -0.014231 -0.318058 127 0 127
-0.053822 0.660917 -0.565185 0 255 0
-0.487741 -0.123904 0.055381 127 0 127
-0.211100 0.072301 0.398884 127 0 127
0.463410 0.068238 0.509969 127 0 127
-0.069702 -0.647118 -0.575483 0 255 0
0.246002 0.002636 -0.435763 127 0 127
-0.065454 0.614673 -0.571355 0 255 0
0.032820 0.034536 -0.513966 127 0 127
0.051744 0.031507 -0.511265 127 0 127
0.211187 0.072301 -0.010484 127 0 127
0.126079 -0.123904 -0.133244 127 0 127
0.224496 0.333908 -0.447355 0 255 0
0.404331 0.072301 -0.223947 127 0 127
-0.211729 -0.123904 -0.070955 127 0 127
-0.303775 0.424027 -0.479093 0 255 0
-0.124911 0.006173 -0.503186 127 0 127
-0.188412 0.072301 -0.000575 127 0 127
0.013104 0.309056 -0.589707 153 0 76
0.491997 -0.054814 0.184422 127 0 127
-0.280744 0.072301 0.272630 127 0 127
-0.528126 -0.647118 0.427449 0 255 0
0.535414 0.399310 -0.162822 255 0 0
0.507470 -0.663469 0.402905 0 255 0
-0.506271 0.399310 -0.217373 255 0 0
-0.027840 -0.025511 -0.575279 153 0 76
-0.299997 0.072301 0.141487 127 0 127
-0.097142 -0.020753 -0.507149 127 0 127
0.065876 -0.123904 0.173206 127 0 127
-0.489200 -0.123904 0.146916 127 0 127
0.404015 0.660917 -0.316130 0 255 0
-0.279660 -0.123904 0.206545 127 0 127
-0.218386 -0.123904 0.339422 127 0 127
-0.047498 0.453980 -0.512434 0 255 0
-0.508552 -0.638556 0.548490 204 51 127
-0.565897 -0.647118 0.300448 0 255 0
0.427616 -0.023168 -0.271966 127 0 127
-0.168773 -0.123904 -0.187963 127 0 127
0.398065 -0.123904 -0.076812 127 0 127
-0.479965 -0.062747 0.431581 127 0 127
0.099239 -0.121646 -0.525598 127 0 127
0.365945 0.456970 -0.415048 0 255 0
-0.247258 -0.663469 -0.486022 0 255 0
-0.548768 0.005599 0.541453 0 127 127
-0.536135 -0.221043 0.556495 204 51 127
-0.497050 -0.052192 -0.099101 127 0 127
-0.179305 0.660917 -0.504960 0 255 0
0.111668 0.363722 -0.500148 0 255 0
-0.322846 0.455342 -0.388657 0 255 0
0.330644 0.058331 0.540550 127 0 127
-0.400810 -0.647118 -0.345803 0 255 0
0.489886 -0.113543 0.015710 127 0 127
-0.222830 0.415660 -0.579901 255 0 0
0.265366 -0.115755 0.567842 255 0 0
0.534453 -0.506898 0.556495 153 0 76
0.491997 -0.009094 0.271303 127 0 127
-0.203214 0.408422 -0.534518 0 255 0
-0.193580 -0.122947 -0.493767 127 0 127
-0.493495 0.067599 -0.092879 127 0 127
-0.300775 -0.120041 0.563769 127 0 127
-0.508552 0.028626 0.207244 127 0 127
0.286312 0.072301 0.514752 127 0 127
-0.470618 -0.663469 -0.203203 0 255 0
0.491997 0.168966 0.554922 153 0 76
0.454899 -0.663469 -0.265374 0 255 0
-0.508552 0.015214 0.076303 127 0 127
0.254024 -0.123904 0.090406 127 0 127
-0.175126 0.609322 -0.550084 0 255 0
0.112572 -0.663469 -0.528090 0 255 0
-0.535683 0.415660 0.313331 76 153 0
-0.508552 0.006425 0.108001 127 0 127
0.491997 -0.024769 0.260325 127 0 127
0.241606 -0.647118 -0.483062 0 255 0
0.542765 -0.647118 0.074758 0 255 0
0.023929 -0.123904 -0.190191 127 0 127
-0.562143 -0.663469 -0.069806 0 255 0
0.029501 -0.663469 -0.549317 0 255 0
0.227255 0.072301 -0.295110 127 0 127
0.270199 0.072301 -0.292753 127 0 127
0.445976 0.072093 -0.189568 127 0 127
-0.190403 0.009319 0.540550 127 0 127
-0.523102 0.304383 0.556495 0 127 127
-0.545173 -0.647118 0.459827 0 255 0
0.415528 0.399310 -0.442584 255 0 0
-0.229583 0.072301 0.521427 127 0 127
0.375600 0.371312 -0.289379 0 255 0
-0.508552 0.052314 0.061452 127 0 127
-0.384586 0.072301 0.155483 127 0 127
-0.551908 -0.647118 0.400154 0 255 0
0.311326 0.072301 0.107284 127 0 127
-0.218505 0.660917 -0.516777 0 255 0
0.330772 0.447374 -0.360138 0 255 0
-0.333800 0.072301 0.276882 127 0 127
0.068979 -0.034915 -0.508805 127 0 127
-0.085975 -0.123904 0.178332 127 0 127
-0.023445 -0.442648 -0.542248 0 0 255
0.218587 0.030812 0.540550 127 0 127
0.543726 -0.663469 0.006312 0 255 0
0.418484 -0.663469 -0.285481 0 255 0
0.507605 -0.420195 0.541453 153 0 76
-0.335131 -0.123566 0.557159 127 0 127
-0.515712 0.399310 -0.165392 255 0 0
-0.508552 0.007973 0.138613 127 0 127
-0.448153 -0.033429 -0.261544 127 0 127
0.005071 0.117196 -0.581433 153 0 76
0.543637 -0.663469 0.253623 0 255 0
-0.322237 0.059684 -0.386124 127 0 127
0.211981 -0.010687 -0.458259 127 0 127
0.045385 0.503481 -0.511109 0 255 0
-0.078932 -0.057190 -0.509748 127 0 127
-0.455580 0.415660 -0.292149 255 0 0
-0.433715 0.036180 -0.218355 127 0 127
0.016630 0.072301 -0.472093 127 0 127
-0.423530 -0.205657 0.546854 255 0 0
-0.267624 -0.123904 0.428047 127 0 127
-0.479965 -0.047299 0.149301 127 0 127
-0.180455 0.399310 -0.576260 255 0 0
-0.460666 0.050217 0.540550 127 0 127
-0.489817 -0.040712 0.571538 127 0 127
0.543517 -0.288075 0.541453 153 0 76
-0.259890 0.399310 -0.568006 255 0 0
-0.192226 0.057118 -0.474563 127 0 127
-0.426668 0.600139 -0.377426 0 255 0
0.144875 -0.123904 -0.499726 127 0 127
-0.424858 -0.061063 0.571538 127 0 127
-0.302136 0.072301 0.183470 127 0 127
0.494026 -0.608474 0.556495 153 0 76
0.371858 0.028824 -0.354557 127 0 127
0.366315 0.415660 -0.478428 255 0 0
0.500627 0.415660 0.309694 76 0 153
-0.091447 -0.647118 -0.584883 0 255 0
0.088165 -0.647118 -0.526505 0 255 0
-0.001722 -0.240523 -0.566007 0 0 255
0.100156 0.070075 0.563841 127 0 127
-0.508552 -0.080174 0.413324 127 0 127
-0.467897 -0.663469 -0.303008 0 255 0
0.050421 -0.074759 -0.511454 127 0 127
-0.015427 0.245598 -0.586971 153 0 76
-0.459032 -0.647118 -0.291321 0 255 0
0.009867 -0.280294 -0.564292 0 0 255
0.335495 0.600354 -0.373712 0 255 0
-0.291774 0.399310 -0.496660 255 0 0
0.512407 -0.046345 0.541453 153 0 76
-0.326865 -0.102447 -0.421333 127 0 127
-0.094806 -0.123904 -0.058095 127 0 127
0.311591 -0.647118 -0.473241 0 255 0
-0.474564 -0.111793 -0.046835 127 0 127
0.455326 -0.108058 -0.068923 127 0 127
0.540667 0.415660 -0.022612 76 0 153
-0.528490 -0.663469 -0.139959 0 255 0
-0.479965 0.028780 0.057283 127 0 127
-0.237847 0.409322 -0.452742 0 255 0
-0.132000 0.072301 -0.123553 127 0 127
-0.508552 0.055593 0.309996 127 0 127
0.284137 -0.070251 0.571538 127 0 127
0.435550 -0.018420 -0.251202 127 0 127
0.432145 -0.116737 -0.179138 127 0 127
-0.487382 0.415660 -0.338037 255 0 0
-0.527601 -0.402065 0.556495 204 51 127
-0.507658 0.061552 0.436551 127 0 127
0.491997 -0.649826 0.159353 0 255 0
-0.397585 0.338080 -0.375794 0 255 0
-0.565454 0.399310 0.295004 76 153 0
-0.402636 -0.188765 0.556495 255 0 0
-0.054603 0.026822 0.540550 127 0 127
-0.240613 0.025960 0.571538 127 0 127
0.512598 0.399310 0.387249 76 0 153
0.279219 -0.123904 -0.131582 127 0 127
0.560734 -0.353418 0.541453 153 0 76
0.536858 0.021604 0.541453 153 0 76
0.491997 -0.026799 0.300006 127 0 127
0.417540 -0.000833 -0.217359 127 0 127
-0.568187 -0.312314 0.541453 204 51 127
0.523736 -0.663469 0.046484 0 255 0
0.438198 -0.174292 0.556495 255 0 0
-0.147512 0.072301 0.462117 127 0 127
-0.098831 -0.123904 -0.432119 127 0 127
-0.403348 0.488226 -0.390138 0 255 0
0.511492 -0.647118 0.351468 0 255 0
0.144274 0.072301 -0.426353 127 0 127
-0.215296 -0.123904 -0.235703 127 0 127
-0.479965 -0.069246 0.065309 127 0 127
0.406776 -0.046229 -0.245527 127 0 127
-0.401813 -0.056358 -0.284726 127 0 127
0.138120 -0.123904 0.526339 127 0 127
-0.382052 -0.012799 0.540550 127 0 127
0.066823 0.072301 -0.065189 127 0 127
-0.395018 0.521781 -0.406535 0 255 0
0.097976 -0.062232 -0.535922 127 0 127
-0.217355 0.072301 0.255089 127 0 127
0.135981 0.072301 -0.454844 127 0 127
-0.506476 -0.663469 -0.198445 0 255 0
0.552158 0.415660 0.480944 76 0 153
0.517941 -0.574372 0.541453 153 0 76
-0.161281 -0.168605 0.556495 255 0 0
-0.137768 0.072301 -0.409696 127 0 127
-0.226301 0.015448 0.540550 127 0 127
0.437014 0.529207 -0.301164 0 255 0
-0.428852 -0.123904 0.357954 127 0 127
0.015812 -0.123904 -0.001018 127 0 127
-0.411068 -0.086329 -0.322555 127 0 127
-0.211689 -0.123904 -0.185089 127 0 127
0.240417 0.447698 -0.440861 0 255 0
0.401680 0.654962 -0.298259 0 255 0
0.022727 0.580632 -0.574261 0 255 0
0.290480 0.072301 0.166568 127 0 127
0.268849 0.415660 -0.509946 255 0 0
0.521698 0.399310 0.180534 76 0 153
-0.560648 0.399310 0.173449 76 153 0
0.409777 -0.123904 -0.224443 127 0 127
-0.186251 0.658514 -0.546438 0 255 0
0.491997 -0.066896 0.243469 127 0 127
0.327139 0.415660 -0.528824 255 0 0
0.511826 -0.663469 0.499091 0 255 0
0.200236 -0.179856 0.541453 255 0 0
0.037332 -0.123904 0.233379 127 0 127
-0.329668 0.477706 -0.462866 0 255 0
-0.189444 -0.647118 -0.515399 0 255 0
-0.074686 0.532020 -0.508936 0 255 0
0.480568 -0.054195 -0.098491 127 0 127
-0.009690 0.013740 0.540550 127 0 127
-0.287038 0.072301 0.396737 127 0 127
0.540888 -0.663469 0.462073 0 255 0
0.257060 0.660917 -0.442116 0 255 0
-0.235915 0.072301 0.395802 127 0 127
-0.284336 -0.123904 -0.333840 127 0 127
0.215365 -0.123904 0.120874 127 0 127
0.536216 -0.647118 -0.084032 0 255 0
-0.512770 0.415660 0.248354 76 153 0
0.013681 -0.040969 -0.559570 127 0 127
-0.385408 0.069631 -0.347195 127 0 127
-0.563186 0.415660 0.010812 76 153 0
0.555856 0.399310 0.043717 76 0 153
-0.490933 0.004142 -0.149464 127 0 127
-0.508552 -0.647828 0.422414 0 255 0
-0.237025 -0.171560 0.556495 255 0 0
-0.516590 0.399310 -0.117964 255 0 0
-0.287116 0.399310 -0.534774 255 0 0
0.343801 0.522383 -0.440398 0 255 0
0.493202 0.415660 0.026588 76 0 153
-0.256781 -0.663469 -0.539402 0 255 0
0.197105 -0.118534 -0.491912 127 0 127
0.078793 -0.052445 -0.538660 127 0 127
0.273240 -0.014339 -0.452166 127 0 127
0.369241 -0.123904 0.272577 127 0 127
-0.337692 -0.123904 -0.158742 127 0 127
-0.459414 -0.202626 0.556495 255 0 0
-0.306008 0.465159 -0.401706 0 255 0
0.318526 -0.051761 -0.414499 127 0 127
-0.508552 0.012215 0.549036 127 0 127
-0.575800 -0.090214 0.556495 0 127 127
-0.451579 -0.025179 -0.171605 127 0 127
0.512238 0.399310 0.279833 76 0 153
-0.117234 0.603977 -0.503894 0 255 0
0.436606 0.072301 0.142828 127 0 127
0.054787 0.072301 0.181028 127 0 127
0.009157 0.177315 -0.568984 153 0 76
0.411360 -0.068085 -0.233532 127 0 127
-0.276006 0.072301 0.414506 127 0 127
0.431251 0.013537 -0.262452 127 0 127
-0.107997 -0.123904 -0.038254 127 0 127
-0.504250 -0.003161 -0.039819 127 0 127
-0.318795 -0.648906 -0.508776 0 255 0
-0.580020 0.400153 0.251734 76 153 0
0.202598 -0.020095 -0.496013 127 0 127
0.050013 0.415660 -0.610756 255 0 0
-0.180167 0.072301 -0.146710 127 0 127
-0.512089 0.399310 0.507841 76 153 0
0.454189 0.415660 -0.264264 255 0 0
-0.406366 -0.123904 0.254918 127 0 127
0.044657 0.072301 0.520868 127 0 127
-0.575547 -0.647118 0.496011 0 255 0
-0.489364 -0.145523 0.556495 204 51 127
-0.520032 -0.663469 -0.056990 0 255 0
0.463658 -0.647118 -0.333232 0 255 0
-0.029749 -0.512132 -0.554294 0 0 255
0.491997 -0.663225 0.072020 0 255 0
-0.459041 -0.122252 0.560352 255 0 0
0.560899 -0.647118 0.265817 0 255 0
0.154327 -0.156717 0.541453 255 0 0
-0.413864 0.467907 -0.268013 0 255 0
-0.455925 -0.083017 0.540550 127 0 127
-0.393156 0.660917 -0.407153 0 255 0
0.475271 -0.205657 0.548993 153 0 76
0.166858 0.633315 -0.482020 0 255 0
-0.552132 0.399310 -0.106631 76 153 0
-0.002414 -0.123904 0.552924 127 0 127
-0.068907 -0.123904 -0.153157 127 0 127
0.398280 -0.188547 0.556495 255 0 0
-0.082353 -0.123904 -0.233717 127 0 127
-0.148964 -0.123904 0.173403 127 0 127
0.463410 -0.108303 0.398075 127 0 127
-0.011362 0.178379 -0.569029 153 0 76
-0.539945 -0.663469 0.398881 0 255 0
0.463410 -0.120075 0.473831 127 0 127
-0.119028 -0.122352 -0.523807 127 0 127
-0.539606 0.099361 0.541453 0 127 127
0.252070 0.072301 0.084804 127 0 127
-0.411163 -0.111438 0.540550 127 0 127
-0.097348 0.597239 -0.506369 0 255 0
-0.535046 0.415660 -0.110480 76 153 0
-0.197564 -0.007229 0.571538 127 0 127
-0.361791 0.597450 -0.361941 0 255 0
0.211240 0.415660 -0.589045 255 0 0
-0.291811 0.518292 -0.493707 0 255 0
-0.286179 0.650556 -0.505259 0 255 0
0.549813 -0.305975 0.541453 153 0 76
-0.250918 0.370117 -0.512448 0 255 0
-0.293250 -0.007733 -0.449293 127 0 127
0.552695 -0.331951 0.541453 153 0 76
-0.527942 -0.647118 -0.005530 0 255 0
-0.183971 0.072301 0.474529 127 0 127
-0.235826 0.072301 0.085306 127 0 127
0.260613 0.586493 -0.432921 0 255 0
0.275008 -0.027332 0.540550 127 0 127
-0.360936 -0.647118 -0.400008 0 255 0
0.166719 0.072301 -0.044737 127 0 127
-0.508552 0.036051 0.114788 127 0 127
-0.479965 -0.096397 0.460153 127 0 127
-0.229308 0.064263 0.540550 127 0 127
0.310308 0.360028 -0.376755 0 255 0
0.005884 -0.049009 0.571538 127 0 127
-0.373536 -0.047286 0.571538 127 0 127
-0.315668 0.507082 -0.397557 0 255 0
-0.277670 0.072301 -0.265710 127 0 127
-0.102571 -0.647118 -0.550802 0 255 0
-0.534314 0.415660 -0.225759 255 0 0
0.271288 0.473200 -0.492688 0 255 0
0.412447 0.434572 -0.286815 0 255 0
0.520504 -0.663469 0.347599 0 255 0
0.518688 -0.647118 0.081575 0 255 0
0.516224 0.399310 0.321480 76 0 153
0.083630 0.638017 -0.506292 0 255 0
-0.215689 0.072301 -0.286857 127 0 127
-0.308009 0.546292 -0.483386 0 255 0
0.362899 -0.123904 -0.005761 127 0 127
0.546926 0.356243 0.541453 153 0 76
0.547977 0.063382 0.541453 153 0 76
-0.120614 0.072301 0.181736 127 0 127
0.252455 0.072301 -0.236519 127 0 127
-0.334657 -0.123904 0.149636 127 0 127
0.328583 -0.123904 0.529987 127 0 127
-0.526619 -0.277098 0.541453 204 51 127
-0.479965 -0.018027 0.519177 127 0 127
0.506584 -0.292678 0.541453 153 0 76
0.266091 0.063067 0.540550 127 0 127
-0.440703 -0.043486 -0.280691 127 0 127
0.354026 -0.063283 0.540550 127 0 127
0.279358 -0.663469 -0.516788 0 255 0
0.022920 0.072301 0.118658 127 0 127
0.397697 0.072301 0.247150 127 0 127
0.252745 0.333908 -0.459988 0 255 0
-0.350696 -0.123904 -0.100750 127 0 127
0.302265 -0.176551 0.556495 255 0 0
-0.041506 -0.537163 -0.538172 0 0 255
0.362181 -0.070327 -0.317326 127 0 127
0.267694 -0.177623 0.556495 255 0 0
-0.132553 0.532008 -0.562424 0 255 0
-0.370743 0.072301 0.500677 127 0 127
0.173377 -0.647118 -0.554787 0 255 0
0.033341 -0.123904 -0.066676 127 0 127
0.193413 -0.123904 0.294895 127 0 127
0.072703 0.633207 -0.568219 0 255 0
-0.407580 0.055905 0.571538 127 0 127
0.558062 0.138702 0.541453 153 0 76
0.422296 0.530511 -0.354259 0 255 0
0.092382 0.072301 0.071841 127 0 127
-0.389850 0.593750 -0.326516 0 255 0
-0.097459 0.399310 -0.641627 255 0 0
-0.010402 0.057025 -0.563796 127 0 127
-0.308202 -0.123904 0.527014 255 0 0
-0.579716 0.399310 0.228157 76 153 0
-0.545318 0.399310 -0.244168 255 0 0
-0.430854 0.463329 -0.349635 0 255 0
-0.479965 0.019884 0.166449 127 0 127
-0.117748 0.070343 0.563344 127 0 127
0.259586 -0.049742 0.540550 127 0 127
0.036434 0.072301 0.317246 127 0 127
0.082338 -0.123904 -0.171880 127 0 127
-0.103617 0.072301 -0.028797 127 0 127
-0.281915 -0.118867 0.565124 127 0 127
-0.041266 0.587159 -0.574402 0 255 0
0.355635 0.620767 -0.439514 0 255 0
-0.567143 -0.566499 0.541453 204 51 127
0.477652 -0.647118 -0.314081 0 255 0
0.433914 0.660917 -0.342761 0 255 0
-0.009669 -0.123904 -0.287963 127 0 127
0.510418 0.248229 0.541453 153 0 76
0.054490 0.022773 0.540550 127 0 127
-0.225467 0.072301 -0.047942 127 0 127
0.374077 0.072301 0.215161 127 0 127
0.560368 -0.387951 0.556495 153 0 76
0.454340 -0.010187 -0.202030 127 0 127
-0.205009 -0.189739 0.556495 255 0 0
0.336759 -0.123904 0.220577 127 0 127
0.415317 0.502782 -0.280479 0 255 0
0.079277 0.415660 -0.582724 255 0 0
-0.318926 0.072301 0.346145 127 0 127
-0.407319 -0.123904 0.386720 127 0 127
0.563464 -0.082277 0.555888 153 0 76
-0.382177 -0.073818 -0.312466 127 0 127
0.415661 -0.123904 0.080795 127 0 127
-0.429052 0.415660 -0.418822 255 0 0
0.397809 -0.647118 -0.363819 0 255 0
-0.040580 0.415660 -0.610532 255 0 0
0.463410 0.057291 0.415652 127 0 127
0.126234 0.512371 -0.560875 0 255 0
0.491997 0.413525 0.410147 76 0 153
0.075353 -0.123904 0.483090 127 0 127
0.491997 0.415506 0.167025 76 0 153
0.533338 0.399310 0.068121 76 0 153
0.489565 -0.114134 0.435544 127 0 127
-0.302643 0.072301 -0.157481 127 0 127
-0.483869 0.003407 0.571538 127 0 127
0.463410 -0.061889 0.117456 127 0 127
0.012588 -0.464534 -0.541304 0 0 255
0.098795 -0.123904 -0.356423 127 0 127
-0.244140 0.399310 -0.586557 255 0 0
-0.222760 0.072301 0.020863 127 0 127
0.373337 0.007760 0.571538 127 0 127
-0.520612 -0.663469 0.237074 0 255 0
0.487016 -0.117860 0.218182 127 0 127
0.016042 -0.125931 0.556495 127 0 127
0.148338 -0.052433 0.571538 127 0 127
-0.373789 0.415660 -0.482849 255 0 0
0.268533 -0.123904 0.499695 127 0 127
-0.508552 0.039316 0.158869 127 0 127
-0.572761 0.332817 0.556495 0 127 127
-0.402774 -0.048337 -0.334271 127 0 127
0.147546 0.425653 -0.486201 0 255 0
-0.179149 0.399310 -0.556499 255 0 0
-0.172584 0.528600 -0.549538 0 255 0
0.563464 0.249033 0.551662 153 0 76
0.001065 0.399310 -0.624168 255 0 0
-0.479624 -0.176827 0.541453 204 51 127
-0.411004 -0.123904 -0.226404 127 0 127
0.499144 -0.150546 0.556495 153 0 76
0.008248 -0.595558 -0.535653 0 0 255
-0.508552 -0.069151 0.274009 127 0 127
0.110974 0.072301 -0.138952 127 0 127
-0.409393 0.057381 -0.274018 127 0 127
-0.038825 0.072301 0.055600 127 0 127
0.406061 -0.123904 0.225106 127 0 127
-0.248290 -0.080741 0.540550 127 0 127
-0.528525 -0.663469 0.019536 0 255 0
-0.009385 -0.123904 -0.135484 127 0 127
-0.432149 0.072301 0.355492 127 0 127
-0.293575 -0.003820 -0.409964 127 0 127
-0.205004 -0.123904 -0.334455 127 0 127
-0.271333 -0.123904 -0.215307 127 0 127
-0.139525 0.072301 -0.028609 127 0 127
-0.384487 0.072301 0.460094 127 0 127
-0.545445 -0.114956 0.541453 204 51 127
0.492051 0.399310 -0.323989 255 0 0
-0.252476 0.415660 -0.530167 255 0 0
0.497770 -0.647118 -0.181550 0 255 0
0.440314 0.541917 -0.331616 0 255 0
0.209238 0.072301 0.443155 127 0 127
0.400748 -0.663469 -0.304976 0 255 0
0.285941 -0.123904 0.424708 127 0 127
0.516043 0.415660 0.495508 76 0 153
-0.500565 -0.663469 -0.161681 0 255 0
-0.446282 -0.123904 0.382458 127 0 127
0.540198 0.415660 0.222687 76 0 153
0.488465 0.042242 -0.033477 127 0 127
-0.408703 0.072301 -0.203242 127 0 127
0.470476 0.045073 -0.159803 127 0 127
-0.239895 -0.123904 0.172647 127 0 127
0.036884 -0.078352 0.571538 127 0 127
-0.521484 0.279951 0.541453 0 127 127
0.545500 0.415245 -0.196322 255 0 0
0.035418 0.072301 0.432985 127 0 127
0.428478 0.055314 -0.269710 127 0 127
-0.132042 0.415660 -0.580339 255 0 0
0.491997 -0.084169 0.396149 127 0 127
-0.050621 -0.011877 -0.513788 127 0 127
-0.477343 -0.025163 -0.023953 127 0 127
0.008784 0.072301 -0.070513 127 0 127
0.058709 0.072301 -0.096369 127 0 127
-0.508552 -0.083488 0.534558 0 127 127
-0.569174 0.415533 0.556495 0 127 127
-0.416995 -0.123904 0.327545 127 0 127
0.509670 -0.663469 -0.062523 0 255 0
0.283453 -0.647118 -0.453413 0 255 0
0.283629 0.072262 0.556613 127 0 127
-0.006870 0.485406 -0.578362 0 255 0
-0.274399 -0.123904 0.340665 127 0 127
0.040296 0.399310 -0.635450 255 0 0
-0.460782 0.072301 0.494890 127 0 127
0.375085 -0.040143 -0.299097 127 0 127
0.264703 -0.123904 -0.333151 127 0 127
-0.549106 -0.502345 0.556495 204 51 127
-0.457323 -0.173052 0.541453 255 0 0
-0.207958 0.399310 -0.603391 255 0 0
0.246764 -0.123904 -0.183596 127 0 127
0.277392 0.408643 -0.409092 0 255 0
0.231174 0.466000 -0.448554 0 255 0
-0.462719 0.519575 -0.312227 0 255 0
0.008376 -0.175047 -0.553788 0 0 255
0.283647 0.494709 -0.410683 0 255 0
0.437281 -0.090264 -0.246673 127 0 127
-0.286895 0.072301 -0.097890 127 0 127
-0.479965 -0.108452 0.259725 127 0 127
0.193189 -0.019466 0.571538 127 0 127
0.247556 -0.022722 0.571538 127 0 127
