ply
format ascii 1.0
element vertex 1307
property float x
property float y
property float z
property uchar red
property uchar green
property uchar blue
end_header
-0.166190 0.059167 -0.130148 0 255 0
-0.147321 -0.458328 -0.252639 0 255 0
-0.323891 0.109971 0.065261 0 255 0
-0.285473 0.728874 -0.357370 0 255 0
0.235178 0.790045 0.290323 0 255 0
-0.060742 0.551833 0.277960 0 255 0
0.031904 0.184401 -0.338113 0 255 0
-0.405164 -0.708256 -0.303893 0 255 0
0.456643 0.671506 -0.064118 0 255 0
0.391868 0.894418 0.158112 0 255 0
0.349471 0.620685 -0.266025 0 255 0
0.413648 -0.531705 -0.194072 0 255 0
0.366862 -0.124677 0.041127 0 255 0
0.303014 0.170286 0.188540 0 255 0
0.070444 0.286294 0.354734 0 255 0
0.244428 -0.423530 -0.339376 0 255 0
-0.091593 0.752954 0.334322 0 255 0
0.485200 0.833185 -0.203993 0 255 0
-0.258352 0.729357 0.385552 0 255 0
0.189495 0.382942 -0.171448 0 255 0
-0.071922 0.046559 0.205301 0 255 0
0.141131 0.274177 0.198311 0 255 0
-0.312306 0.811486 0.183270 0 255 0
0.196281 0.668444 0.411641 0 255 0
-0.338139 0.763564 -0.011205 0 255 0
0.403820 -0.597143 0.260231 0 255 0
-0.222230 0.540272 0.333702 0 255 0
0.235144 0.100369 0.049958 0 255 0
0.351934 0.607029 0.243884 0 255 0
0.184987 -0.915408 0.370608 127 127 0
0.347708 -0.711617 -0.210242 0 255 0
-0.258352 -0.588836 0.387107 0 255 0
-0.385729 -0.753316 0.082805 0 255 0
-0.336901 0.535360 0.185115 0 255 0
-0.207140 -0.365872 0.157222 0 255 0
0.156560 -0.679290 -0.343799 0 255 0
0.331780 0.897133 -0.254399 0 255 0
-0.005452 0.105631 0.346768 0 255 0
-0.110996 -0.915408 -0.196544 0 255 0
0.245242 -0.640314 0.279094 0 255 0
0.148580 0.507730 -0.372302 0 255 0
0.177274 0.015466 -0.148714 0 255 0
-0.004885 0.568351 -0.282001 0 255 0
-0.365289 -0.559190 0.073723 0 255 0
0.411799 0.883250 -0.066855 0 255 0
0.014367 0.075747 -0.216506 0 255 0
0.303584 0.618854 -0.083374 0 255 0
-0.212533 0.216231 -0.261364 0 255 0
-0.242283 -0.755850 -0.324755 0 255 0
0.410607 -0.914004 0.124043 127 127 0
-0.248518 0.654365 -0.202218 0 255 0
0.272412 0.434497 0.010707 0 255 0
0.133112 -0.147040 -0.199869 0 255 0
0.232854 -0.915408 -0.145534 0 255 0
0.283960 -0.354125 0.015315 0 255 0
0.337210 -0.554387 -0.056260 0 255 0
0.311151 0.454334 -0.243946 0 255 0
0.219655 -0.673903 0.467026 0 255 0
0.077037 -0.541307 0.320684 0 255 0
0.068200 0.718308 0.333692 0 255 0
-0.264557 0.340791 0.229272 0 255 0
-0.063113 -0.463519 -0.414744 0 255 0
0.399329 -0.866685 -0.141320 127 127 0
0.428646 -0.784154 0.004891 0 255 0
0.036943 0.398634 -0.243976 0 255 0
0.240709 -0.113016 0.276547 0 255 0
-0.221186 0.865990 0.319141 0 255 0
-0.372259 -0.676847 -0.144255 0 255 0
-0.026979 -0.450134 0.422799 0 255 0
0.219493 0.476623 0.170144 0 255 0
-0.310985 0.010459 -0.103790 0 255 0
0.351051 -0.281115 -0.165638 0 255 0
-0.484870 0.806473 -0.047198 0 255 0
0.004907 0.376959 0.249150 0 255 0
-0.342283 -0.283242 -0.125559 0 255 0
-0.101610 -0.272445 0.359541 0 255 0
-0.397928 -0.429999 -0.037723 0 255 0
0.031424 -0.915408 0.319420 0 255 0
0.030162 0.757394 -0.347682 0 255 0
0.161340 0.791890 -0.449919 0 255 0
-0.223818 -0.224416 0.042602 0 255 0
0.374193 0.762923 -0.311593 0 255 0
-0.179274 0.107206 0.109586 0 255 0
0.272666 0.106631 -0.223940 0 255 0
-0.027151 -0.915408 0.056655 127 127 0
-0.107259 0.468200 -0.232753 0 255 0
0.361056 0.190771 0.023896 0 255 0
0.349227 0.860223 0.367725 0 255 0
-0.245184 -0.915408 0.112421 127 127 0
0.241559 -0.915408 0.135334 0 255 0
0.188742 -0.463580 0.244926 0 255 0
-0.395559 0.795985 -0.277315 0 255 0
-0.214232 -0.505500 0.216102 0 255 0
0.148708 -0.531949 -0.377565 0 255 0
-0.065127 -0.767971 0.406619 0 255 0
-0.142516 -0.082117 -0.303307 0 255 0
0.242805 -0.047093 0.024112 0 255 0
0.156038 0.090582 0.172994 0 255 0
0.105067 0.764952 0.480062 0 255 0
-0.134255 -0.092835 0.174155 0 255 0
0.128674 -0.342524 -0.235932 0 255 0
0.442534 0.758270 0.133333 0 255 0
-0.202552 -0.136918 -0.075044 0 255 0
-0.043375 -0.275601 -0.243058 0 255 0
0.426667 0.569853 0.047743 0 255 0
-0.364628 -0.696880 0.339419 0 255 0
0.529262 -0.689054 0.049071 0 255 0
-0.125122 0.320713 0.193638 0 255 0
-0.274514 0.594923 0.068327 0 255 0
-0.234912 0.416638 -0.022829 0 255 0
0.337218 -0.762598 0.258541 0 255 0
-0.184947 -0.552077 -0.403557 0 255 0
0.010077 -0.165616 0.240432 0 255 0
-0.092718 0.169286 -0.192792 0 255 0
0.375439 0.334735 0.024195 0 255 0
-0.288535 -0.915408 -0.086108 127 127 0
0.239210 0.187915 -0.062726 0 255 0
-0.332034 -0.778557 0.223793 0 255 0
-0.259661 0.797965 -0.235420 0 255 0
-0.391607 0.544966 -0.033569 0 255 0
-0.054195 0.299446 -0.347592 0 255 0
0.363874 -0.609141 -0.307474 0 255 0
-0.341767 0.292870 -0.024824 0 255 0
-0.377599 0.683562 0.204115 0 255 0
-0.358799 -0.302070 0.062602 0 255 0
0.357076 -0.443778 0.248215 0 255 0
0.271927 0.511872 0.311167 0 255 0
0.053248 -0.124690 -0.346964 0 255 0
-0.016879 -0.915408 -0.088158 0 255 0
-0.185067 0.267025 -0.112044 0 255 0
0.239359 -0.361020 0.164237 0 255 0
-0.251807 -0.915408 -0.224333 127 127 0
0.379478 -0.664382 0.061976 0 255 0
-0.042045 -0.915408 -0.335959 127 127 0
-0.102984 0.247549 0.336818 0 255 0
-0.202263 0.834072 -0.464234 0 255 0
-0.159054 0.590381 -0.378988 0 255 0
0.234483 -0.762281 0.352270 0 255 0
0.237308 0.625427 -0.346046 0 255 0
0.179360 -0.701845 -0.480516 0 255 0
-0.032233 0.773938 0.479009 0 255 0
-0.102719 -0.423700 0.264235 0 255 0
-0.390411 -0.785838 -0.054996 0 255 0
-0.068980 -0.637996 -0.482024 0 255 0
0.043900 0.259433 -0.223698 0 255 0
-0.446111 0.814787 0.215160 0 255 0
0.298250 0.331987 0.167491 0 255 0
-0.193510 -0.151550 0.289744 0 255 0
0.320274 -0.215688 0.207425 0 255 0
-0.085945 0.884880 -0.403877 0 255 0
0.140193 -0.307856 0.276107 0 255 0
0.218965 0.225078 -0.280927 0 255 0
0.072261 -0.059427 0.346681 0 255 0
-0.410502 -0.544478 -0.155189 0 255 0
0.103084 -0.431870 0.395104 0 255 0
0.305059 0.735200 0.190071 0 255 0
0.390373 0.773410 0.006387 0 255 0
-0.210595 0.125814 -0.023040 0 255 0
-0.132785 -0.073913 -0.170272 0 255 0
-0.311205 0.536612 -0.198311 0 255 0
0.311299 0.683901 0.345809 0 255 0
-0.144252 0.654515 0.413893 0 255 0
0.194205 -0.089390 0.142535 0 255 0
-0.328225 -0.513691 0.282538 0 255 0
0.381117 -0.264752 0.019310 0 255 0
0.094407 -0.682051 0.508123 0 255 0
-0.271602 -0.458971 0.081276 0 255 0
0.229710 -0.798918 -0.349911 0 255 0
-0.410138 -0.582013 0.199235 0 255 0
0.143411 -0.343880 -0.367263 0 255 0
0.264292 0.491645 -0.107471 0 255 0
0.106826 0.637027 -0.292078 0 255 0
0.185478 0.886502 -0.361844 0 255 0
-0.035275 -0.709430 0.524278 0 255 0
0.133689 -0.656106 0.349469 0 255 0
0.507897 0.795616 -0.080526 0 255 0
0.251451 0.323732 -0.064812 0 255 0
-0.314048 -0.095967 0.081267 0 255 0
-0.176791 0.083381 0.288712 0 255 0
-0.391589 0.896553 -0.040258 0 255 0
-0.244394 -0.435843 -0.123659 0 255 0
0.245570 -0.181983 0.068410 0 255 0
0.224322 -0.093073 -0.095176 0 255 0
-0.321721 0.849717 -0.387714 0 255 0
-0.217148 0.378092 -0.282851 0 255 0
0.398277 -0.449096 0.120955 0 255 0
-0.108996 -0.747703 -0.382640 0 255 0
0.288745 0.549210 0.080562 0 255 0
0.132772 0.398581 0.229163 0 255 0
0.198363 -0.257800 -0.168696 0 255 0
0.341028 -0.443699 -0.257579 0 255 0
0.085328 0.592573 0.366109 0 255 0
-0.209553 -0.214490 -0.263955 0 255 0
-0.266869 -0.477303 -0.315474 0 255 0
0.156807 -0.477709 -0.262579 0 255 0
-0.212265 -0.915408 0.340808 127 127 0
-0.232018 0.366440 0.104598 0 255 0
-0.241346 -0.276006 0.249328 0 255 0
-0.311468 -0.664907 -0.379713 0 255 0
-0.064555 -0.188695 -0.332551 0 255 0
0.171355 0.008725 0.307797 0 255 0
-0.140469 -0.532637 0.426962 0 255 0
-0.211531 0.004321 -0.234239 0 255 0
0.039474 0.102983 0.222562 0 255 0
0.354635 0.061570 0.040311 0 255 0
-0.278560 0.849237 0.430052 0 255 0
0.463661 -0.543280 -0.073945 0 255 0
-0.487773 -0.680944 0.095271 0 255 0
0.070278 -0.036519 -0.213395 0 255 0
0.234116 0.242328 0.276170 0 255 0
0.020127 -0.684367 -0.376879 0 255 0
0.244262 0.670482 -0.219718 0 255 0
0.446589 -0.708685 0.297080 0 255 0
-0.306436 0.664401 -0.079929 0 255 0
-0.036769 -0.024777 -0.335828 0 255 0
0.267164 -0.573778 -0.377363 0 255 0
0.430444 0.705183 -0.195321 0 255 0
0.315162 -0.585941 0.366049 0 255 0
-0.305678 0.718473 0.098998 0 255 0
-0.464400 0.851859 -0.173416 0 255 0
0.059195 -0.454555 -0.415577 0 255 0
0.163253 0.881793 0.376750 0 255 0
-0.141892 -0.681394 0.367188 0 255 0
0.467121 -0.615330 0.157295 0 255 0
0.341798 -0.157264 -0.145594 0 255 0
0.171375 -0.915408 -0.253712 127 127 0
0.049048 0.749911 -0.471523 0 255 0
-0.305673 0.251746 0.146336 0 255 0
-0.433224 0.675583 -0.037653 0 255 0
-0.049670 -0.369457 -0.330320 0 255 0
-0.166122 -0.416625 -0.364943 0 255 0
0.389172 0.571609 -0.162637 0 255 0
0.341397 -0.668126 0.182854 0 255 0
-0.347666 -0.648686 -0.011207 0 255 0
-0.190521 0.542392 -0.185864 0 255 0
-0.349968 0.683183 -0.261355 0 255 0
0.267030 -0.688531 -0.296598 0 255 0
-0.137107 0.200226 0.173009 0 255 0
0.101054 -0.539956 0.447354 0 255 0
-0.181697 0.707100 -0.413560 0 255 0
-0.269186 0.100742 -0.190200 0 255 0
-0.271364 -0.710425 0.432617 0 255 0
0.171288 0.442283 -0.273633 0 255 0
0.466201 -0.709356 -0.224618 0 255 0
-0.024045 0.512438 0.393025 0 255 0
-0.219151 -0.359058 -0.266750 0 255 0
-0.316263 0.779893 -0.126778 0 255 0
-0.364521 -0.879242 0.158241 127 127 0
-0.334002 0.746002 0.295417 0 255 0
-0.431224 0.750132 0.102236 0 255 0
-0.297743 -0.713300 -0.228783 0 255 0
-0.126907 0.652074 0.280470 0 255 0
-0.048714 0.554560 -0.400752 0 255 0
0.317358 -0.467154 0.021197 0 255 0
-0.276628 0.455097 0.255359 0 255 0
0.266344 0.734271 -0.380521 0 255 0
0.065241 -0.230370 -0.248660 0 255 0
0.076861 -0.317054 0.374978 0 255 0
-0.020226 -0.282818 0.254841 0 255 0
-0.266064 0.617138 -0.313316 0 255 0
0.324217 0.872643 0.253689 0 255 0
-0.344809 0.455851 -0.112346 0 255 0
0.505323 0.844972 0.181227 0 255 0
-0.314579 0.626890 0.284817 0 255 0
-0.141807 0.802198 -0.327689 0 255 0
-0.372356 -0.608749 -0.246299 0 255 0
0.165701 0.678325 -0.421585 0 255 0
-0.120427 -0.390501 0.386403 0 255 0
-0.101058 0.437593 0.248281 0 255 0
0.417291 0.646917 0.155772 0 255 0
0.204251 0.192102 0.130141 0 255 0
0.392423 -0.721886 -0.316899 0 255 0
0.353551 0.388134 -0.145009 0 255 0
0.055154 -0.580639 -0.329622 0 255 0
0.013096 -0.855978 0.417081 127 127 0
-0.216603 -0.489109 0.338870 0 255 0
0.302704 -0.500574 -0.164476 0 255 0
0.112934 0.518763 0.258965 0 255 0
0.124462 -0.158447 0.249782 0 255 0
0.197315 -0.915408 0.243853 127 127 0
0.272662 0.783984 -0.250882 0 255 0
-0.059820 0.668449 -0.398239 0 255 0
-0.250228 -0.540578 -0.178340 0 255 0
0.069202 0.200901 0.278579 0 255 0
0.048012 -0.726997 -0.478567 0 255 0
-0.244655 0.476300 0.073480 0 255 0
0.126633 -0.782311 -0.394392 0 255 0
0.304254 -0.336427 -0.253675 0 255 0
0.324934 -0.611787 -0.161158 0 255 0
0.053312 0.385670 -0.359854 0 255 0
0.278009 0.346121 -0.236740 0 255 0
0.279494 -0.460529 0.333176 0 255 0
0.030464 0.071353 -0.332876 0 255 0
0.025124 -0.684761 0.382714 0 255 0
0.178940 -0.075209 -0.274029 0 255 0
0.265365 0.614475 0.169562 0 255 0
-0.218052 -0.627361 0.289156 0 255 0
0.241751 0.069236 0.243926 0 255 0
-0.315341 -0.325598 0.178496 0 255 0
-0.116836 -0.198267 -0.195053 0 255 0
-0.023130 -0.162366 0.358675 0 255 0
-0.113190 0.584126 -0.257597 0 255 0
0.053886 -0.915408 -0.398699 127 127 0
-0.204509 0.764140 0.275714 0 255 0
-0.272306 0.066243 0.160680 0 255 0
0.220733 0.266435 -0.159169 0 255 0
0.429214 -0.911426 0.011197 127 127 0
-0.379478 0.515303 0.073527 0 255 0
0.247549 0.509326 -0.320525 0 255 0
-0.005216 -0.009818 0.274774 0 255 0
-0.473023 -0.706856 -0.181617 0 255 0
-0.167210 -0.672784 -0.323938 0 255 0
0.373976 -0.398380 -0.160284 0 255 0
-0.193045 -0.185419 0.145025 0 255 0
-0.258169 -0.249153 -0.061033 0 255 0
-0.183907 0.316333 0.303350 0 255 0
0.177229 0.528051 0.367469 0 255 0
-0.314743 0.893259 0.258592 0 255 0
0.139690 0.137730 -0.315625 0 255 0
0.317962 0.159922 -0.135883 0 255 0
-0.412162 -0.539946 -0.032992 0 255 0
0.466002 0.680050 0.045583 0 255 0
-0.058524 -0.006926 -0.222741 0 255 0
-0.180583 0.000290 0.136764 0 255 0
-0.069272 0.871517 0.397075 0 255 0
-0.020016 -0.491360 0.306204 0 255 0
0.213781 -0.915408 0.020620 0 255 0
-0.180586 0.567239 0.227871 0 255 0
-0.156787 -0.563428 -0.283204 0 255 0
-0.073342 -0.915408 0.283813 127 127 0
0.411473 -0.370162 0.046132 0 255 0
-0.279774 0.272717 -0.187520 0 255 0
0.223590 0.080092 -0.066179 0 255 0
-0.012653 0.648432 0.312226 0 255 0
0.349370 0.248922 0.115015 0 255 0
0.405343 -0.759213 -0.126313 0 255 0
0.244870 -0.240944 0.281458 0 255 0
0.400104 0.454686 0.035984 0 255 0
0.414099 0.882442 0.052556 0 255 0
0.376111 -0.658108 -0.062230 0 255 0
0.158759 0.317531 0.296834 0 255 0
-0.000544 0.383204 0.366206 0 255 0
-0.062944 -0.508194 -0.298521 0 255 0
0.377359 -0.845319 0.200757 127 127 0
-0.393440 -0.425232 0.071034 0 255 0
0.294453 -0.219514 -0.236422 0 255 0
0.084427 0.511353 -0.261599 0 255 0
0.360452 -0.077979 -0.056732 0 255 0
-0.124535 0.552515 0.377246 0 255 0
0.321954 0.432950 0.227299 0 255 0
-0.330374 -0.049356 -0.016613 0 255 0
-0.066528 0.198521 -0.297885 0 255 0
-0.167382 0.400907 -0.165831 0 255 0
-0.327242 0.422069 0.166919 0 255 0
-0.379677 0.595378 -0.126860 0 255 0
-0.007204 -0.915408 0.163078 127 127 0
-0.133874 0.753992 0.450866 0 255 0
-0.286062 -0.274020 -0.215638 0 255 0
-0.145046 -0.915408 0.075991 127 127 0
0.400295 0.890649 -0.172251 0 255 0
-0.299443 -0.411612 0.258535 0 255 0
-0.343011 -0.504459 -0.226786 0 255 0
0.306682 -0.432938 -0.079908 0 255 0
0.043081 0.510933 -0.362528 0 255 0
-0.319831 0.190977 -0.007118 0 255 0
-0.279486 -0.547428 0.138529 0 255 0
-0.147005 0.292147 -0.297614 0 255 0
-0.149339 0.460948 -0.346270 0 255 0
-0.198896 -0.026177 -0.074971 0 255 0
0.171659 0.413430 0.347281 0 255 0
0.276781 -0.279345 0.109637 0 255 0
-0.338185 -0.654543 0.108571 0 255 0
0.177760 -0.557191 0.291239 0 255 0
-0.199352 0.169379 -0.147672 0 255 0
-0.125071 -0.340868 -0.221379 0 255 0
-0.195407 -0.915408 -0.134405 0 255 0
0.355003 0.267016 -0.053107 0 255 0
0.121903 -0.204044 -0.335273 0 255 0
-0.363268 -0.446099 -0.135051 0 255 0
0.167770 0.710683 0.303247 0 255 0
0.274814 -0.321298 -0.084778 0 255 0
0.301762 -0.111073 0.177880 0 255 0
0.096707 -0.915408 0.078183 0 255 0
0.075561 0.048707 0.305271 0 255 0
-0.356500 0.827092 0.069004 0 255 0
-0.291610 -0.827970 -0.268986 127 127 0
0.170607 0.089000 -0.227868 0 255 0
-0.201760 -0.915408 0.237743 127 127 0
-0.387943 -0.891104 -0.071676 127 127 0
-0.313936 0.007060 0.077937 0 255 0
0.180225 -0.603370 -0.444799 0 255 0
0.355501 -0.203102 0.111457 0 255 0
0.325210 -0.319598 0.231234 0 255 0
-0.022822 -0.340544 0.384747 0 255 0
0.198790 0.786353 0.390008 0 255 0
0.131563 0.312691 -0.219753 0 255 0
0.173344 -0.351325 0.362877 0 255 0
-0.189578 0.442524 0.319984 0 255 0
0.116533 0.866390 0.472477 0 255 0
-0.096268 0.035201 0.329605 0 255 0
0.239828 0.389817 0.106808 0 255 0
0.071581 0.846966 -0.512215 0 255 0
0.044200 -0.339212 -0.300409 0 255 0
0.342691 0.715078 -0.062331 0 255 0
0.131277 -0.915408 -0.154069 127 127 0
-0.012972 0.462880 0.303896 0 255 0
-0.104852 -0.849277 -0.389654 0 255 0
0.213514 0.015915 0.102566 0 255 0
-0.248513 -0.915408 0.010655 0 255 0
-0.100347 0.138279 0.329925 0 255 0
-0.281903 -0.467774 -0.020526 0 255 0
0.053652 0.283138 -0.348484 0 255 0
-0.279939 0.046521 -0.013994 0 255 0
-0.296311 0.896273 -0.264344 0 255 0
-0.252143 -0.094466 0.161391 0 255 0
-0.254383 -0.311235 0.084638 0 255 0
-0.155795 -0.834985 0.376703 127 127 0
-0.124561 -0.323311 0.259981 0 255 0
0.105356 0.825171 -0.363197 0 255 0
0.352751 -0.205722 -0.057919 0 255 0
-0.379901 0.885999 0.181814 0 255 0
0.353910 0.114440 -0.049021 0 255 0
0.259269 0.894678 0.338870 0 255 0
0.364298 -0.560913 0.052744 0 255 0
-0.293797 -0.107112 -0.104451 0 255 0
0.382159 -0.320433 -0.077847 0 255 0
-0.221507 0.645927 0.344186 0 255 0
0.292262 0.536955 -0.022754 0 255 0
0.422344 0.863167 0.270780 0 255 0
0.068777 0.156296 -0.239746 0 255 0
-0.143302 -0.014999 0.242688 0 255 0
-0.214692 -0.127681 0.064987 0 255 0
-0.205732 0.278509 0.143305 0 255 0
-0.232531 0.456868 -0.113739 0 255 0
0.268025 0.671054 0.257218 0 255 0
-0.328462 -0.608063 0.313789 0 255 0
-0.046987 -0.082921 0.222311 0 255 0
-0.323748 -0.209271 0.065675 0 255 0
-0.176643 0.198158 0.292879 0 255 0
0.010859 0.665407 -0.316771 0 255 0
-0.001599 0.205645 0.347481 0 255 0
0.228579 -0.155506 -0.175460 0 255 0
0.085576 0.676672 0.440108 0 255 0
-0.360543 -0.327582 -0.032713 0 255 0
-0.255261 0.588490 0.164900 0 255 0
0.223007 -0.623503 0.382373 0 255 0
-0.000657 -0.596170 0.349216 0 255 0
-0.069065 0.387585 -0.292371 0 255 0
-0.235323 0.308383 -0.036742 0 255 0
0.166556 -0.588289 -0.299542 0 255 0
-0.307305 0.482384 -0.019582 0 255 0
0.090912 -0.915408 0.397376 127 127 0
0.306325 -0.584189 0.224682 0 255 0
0.248203 0.012063 -0.221639 0 255 0
0.268275 -0.855085 0.327220 0 255 0
-0.204031 0.115063 -0.261498 0 255 0
0.052067 0.288785 0.239648 0 255 0
-0.081663 0.849092 -0.505214 0 255 0
0.306816 -0.055843 -0.136151 0 255 0
-0.351616 0.629401 0.002439 0 255 0
0.339093 0.665249 -0.180369 0 255 0
-0.254961 0.177029 0.084726 0 255 0
0.176725 -0.001052 0.203312 0 255 0
0.413592 0.779883 -0.096058 0 255 0
0.102002 -0.452100 0.292160 0 255 0
0.356884 0.805722 0.141187 0 255 0
-0.313908 0.312529 0.065755 0 255 0
0.271352 0.864357 -0.323448 0 255 0
0.153060 0.180896 0.220486 0 255 0
0.107847 0.802040 0.362000 0 255 0
0.437749 -0.461605 0.031487 0 255 0
0.315126 -0.395384 0.115836 0 255 0
0.246198 -0.451117 -0.230557 0 255 0
-0.251780 -0.201658 -0.144312 0 255 0
0.266060 0.583000 -0.168933 0 255 0
0.427328 0.579750 -0.070813 0 255 0
-0.079018 -0.154869 0.277197 0 255 0
0.372523 0.565782 0.128710 0 255 0
-0.060904 -0.561750 -0.424604 0 255 0
-0.212913 0.712436 -0.282261 0 255 0
0.275560 -0.443676 0.196828 0 255 0
0.310663 0.120988 0.104754 0 255 0
0.403642 -0.546216 0.139760 0 255 0
-0.015353 0.867877 0.478415 0 255 0
-0.053647 0.312516 0.287945 0 255 0
-0.051730 0.804395 -0.357972 0 255 0
-0.296445 -0.624757 -0.167770 0 255 0
0.165612 -0.245308 0.342788 0 255 0
0.284944 0.208478 -0.214931 0 255 0
-0.243773 -0.341878 -0.111768 0 255 0
0.282327 -0.136002 -0.005757 0 255 0
0.245476 -0.915408 -0.330448 127 127 0
0.453297 -0.618148 -0.202817 0 255 0
0.326373 -0.915408 -0.105871 0 255 0
-0.106576 0.135966 0.235619 0 255 0
-0.016740 0.726201 0.398933 0 255 0
0.014932 -0.254651 0.339072 0 255 0
0.156828 -0.092246 0.314524 0 255 0
0.317052 -0.056377 0.083079 0 255 0
0.209411 -0.344605 -0.284636 0 255 0
0.150878 -0.437844 -0.369450 0 255 0
-0.092605 0.075464 -0.188740 0 255 0
-0.279119 -0.707171 0.256797 0 255 0
0.294893 0.529114 0.193904 0 255 0
-0.194959 0.311104 -0.196675 0 255 0
0.222857 0.383477 0.200594 0 255 0
-0.272211 0.096297 -0.092682 0 255 0
0.347116 0.480794 -0.153316 0 255 0
0.134869 0.232875 -0.327028 0 255 0
0.054683 -0.359349 -0.390842 0 255 0
0.325480 -0.915408 -0.199685 127 127 0
0.416686 -0.799536 0.095745 0 255 0
0.211600 0.308485 0.144189 0 255 0
0.036173 0.561899 0.287980 0 255 0
0.326192 0.775719 0.337432 0 255 0
-0.217731 0.450939 -0.225351 0 255 0
-0.369969 -0.680550 0.215516 0 255 0
0.292783 0.407126 -0.077809 0 255 0
0.358827 0.373602 0.111317 0 255 0
-0.451622 -0.596177 0.087488 0 255 0
-0.336930 0.395029 -0.025477 0 255 0
-0.236639 0.217360 -0.052604 0 255 0
0.383429 0.390516 -0.057743 0 255 0
-0.181352 -0.242089 0.310518 0 255 0
-0.184071 -0.276653 0.158227 0 255 0
0.083521 0.134986 0.342012 0 255 0
0.325290 -0.915408 0.172958 0 255 0
-0.230318 -0.045646 -0.158810 0 255 0
-0.103850 -0.473526 0.341116 0 255 0
-0.165088 0.066426 0.198234 0 255 0
-0.285962 -0.827496 0.285918 127 127 0
0.308956 0.701554 -0.279622 0 255 0
0.483085 0.767738 0.027266 0 255 0
-0.091878 -0.725594 -0.471625 0 255 0
0.277232 0.602302 0.321043 0 255 0
0.118457 -0.915408 0.292480 127 127 0
0.200654 -0.437560 0.373669 0 255 0
0.370715 0.626902 0.004177 0 255 0
0.075123 0.378145 0.307000 0 255 0
-0.361078 -0.915408 -0.155454 127 127 0
-0.016645 0.323223 -0.255358 0 255 0
0.224549 -0.156452 -0.282462 0 255 0
-0.261466 -0.179297 0.236713 0 255 0
0.070535 -0.255417 0.251735 0 255 0
0.096536 -0.915408 -0.306267 127 127 0
-0.324421 0.328745 -0.105865 0 255 0
0.244493 -0.019503 0.262986 0 255 0
0.237289 0.187923 0.029358 0 255 0
0.127096 0.608859 -0.375082 0 255 0
0.326842 -0.539833 -0.263694 0 255 0
-0.447061 -0.734069 -0.008227 0 255 0
0.323054 -0.915408 0.080012 0 255 0
-0.004580 0.473237 -0.271642 0 255 0
0.186681 -0.076504 -0.183052 0 255 0
0.279855 0.561300 -0.255002 0 255 0
-0.258137 0.821809 -0.324485 0 255 0
0.402841 0.847399 -0.316752 0 255 0
0.052479 -0.025427 -0.338418 0 255 0
0.397489 0.789195 -0.205685 0 255 0
-0.041597 0.115379 -0.277456 0 255 0
0.262749 0.058289 -0.146794 0 255 0
-0.158367 0.883868 0.379827 0 255 0
0.224122 0.373511 -0.302111 0 255 0
-0.339693 0.755194 -0.209010 0 255 0
-0.185658 -0.398794 -0.191732 0 255 0
-0.092494 -0.602041 0.386900 0 255 0
0.238044 -0.007420 -0.063926 0 255 0
-0.403196 0.819808 -0.117809 0 255 0
0.208099 0.476845 -0.178129 0 255 0
0.267713 -0.254894 0.023260 0 255 0
-0.184051 -0.134032 -0.222308 0 255 0
0.115387 0.714958 -0.358693 0 255 0
0.187598 -0.915408 -0.065398 127 127 0
0.448994 -0.697775 0.012975 0 255 0
0.286194 0.347101 0.034006 0 255 0
0.315956 -0.759872 -0.279775 0 255 0
0.379689 0.693026 0.231866 0 255 0
-0.111477 0.248076 0.242258 0 255 0
-0.279340 -0.462582 0.175398 0 255 0
0.175007 -0.369925 0.223464 0 255 0
-0.199076 0.789179 0.360913 0 255 0
-0.002985 -0.096479 0.296968 0 255 0
0.314863 -0.682619 0.315938 0 255 0
0.241968 0.085937 0.156739 0 255 0
0.023411 -0.547906 -0.405545 0 255 0
-0.266775 -0.118828 -0.016452 0 255 0
-0.283641 0.543640 0.254070 0 255 0
-0.441575 -0.625604 -0.165716 0 255 0
-0.041294 0.239688 -0.223118 0 255 0
-0.394771 -0.828919 0.026465 127 127 0
-0.034372 -0.915408 -0.238484 127 127 0
-0.357286 -0.511008 0.199817 0 255 0
0.096159 0.050530 -0.200376 0 255 0
-0.144667 0.240041 -0.198606 0 255 0
-0.209903 0.271729 0.230015 0 255 0
0.209435 0.520329 0.244750 0 255 0
-0.314522 -0.383569 -0.083106 0 255 0
-0.274582 0.738328 0.212037 0 255 0
-0.207806 0.062891 0.036875 0 255 0
-0.325344 -0.375666 0.094437 0 255 0
0.264956 -0.513415 0.253371 0 255 0
0.230866 -0.504988 -0.313125 0 255 0
0.270804 0.345484 -0.150544 0 255 0
0.175424 0.631002 0.336529 0 255 0
-0.048527 -0.272759 -0.344509 0 255 0
-0.306276 0.338016 0.150026 0 255 0
0.118213 -0.625320 0.428524 0 255 0
-0.118799 -0.245275 -0.271750 0 255 0
-0.293055 -0.286981 0.008984 0 255 0
-0.094518 0.488200 0.325180 0 255 0
0.005060 -0.741195 0.448707 0 255 0
0.244461 0.153340 0.262139 0 255 0
0.421307 -0.855715 -0.058947 0 255 0
0.376386 -0.795917 -0.198318 0 255 0
0.271474 0.250711 0.173840 0 255 0
-0.193835 0.388653 0.221149 0 255 0
-0.210955 -0.402238 0.234796 0 255 0
0.006824 -0.060998 -0.271305 0 255 0
-0.074011 0.619395 -0.325048 0 255 0
0.232363 0.140705 -0.133755 0 255 0
-0.181478 -0.805092 -0.359345 0 255 0
0.075767 -0.109695 -0.257584 0 255 0
0.151100 -0.232878 -0.246252 0 255 0
-0.063220 -0.359820 0.312329 0 255 0
-0.008832 0.808600 0.373313 0 255 0
0.146727 0.416707 -0.350962 0 255 0
-0.304932 0.824556 0.309710 0 255 0
0.366632 0.713529 0.135708 0 255 0
-0.314935 -0.544307 0.006538 0 255 0
-0.423477 0.754357 -0.008334 0 255 0
-0.192636 0.613033 -0.255913 0 255 0
0.188607 -0.703252 0.393102 0 255 0
-0.228891 -0.475659 -0.239159 0 255 0
0.174552 -0.832402 0.382165 0 255 0
0.399024 -0.491771 -0.091258 0 255 0
-0.268713 0.482710 0.171199 0 255 0
-0.115040 -0.915408 -0.108272 127 127 0
0.281522 0.057427 -0.005848 0 255 0
-0.297188 0.151485 0.153045 0 255 0
0.333510 -0.027716 0.005249 0 255 0
0.243761 -0.658763 -0.371747 0 255 0
-0.086070 -0.669861 -0.404701 0 255 0
0.284432 0.472008 0.113496 0 255 0
0.368613 -0.522591 0.221441 0 255 0
-0.121426 -0.915408 -0.304358 127 127 0
0.224224 -0.148312 0.202307 0 255 0
0.011278 -0.525463 0.392393 0 255 0
-0.151919 -0.617848 0.445439 0 255 0
-0.356149 -0.243523 -0.024538 0 255 0
-0.050340 0.083914 0.279521 0 255 0
-0.044924 -0.106340 -0.319599 0 255 0
0.280810 -0.230446 -0.154896 0 255 0
-0.147509 0.377409 -0.328633 0 255 0
-0.327549 -0.192686 -0.110995 0 255 0
0.428160 -0.617220 0.010634 0 255 0
0.156948 0.222194 0.307830 0 255 0
-0.141548 0.173164 -0.265905 0 255 0
-0.236221 -0.667048 0.369841 0 255 0
0.009472 -0.186263 -0.294935 0 255 0
0.290469 0.246948 -0.004842 0 255 0
-0.120996 -0.388453 -0.289310 0 255 0
-0.188808 -0.567891 0.346962 0 255 0
0.095741 -0.511397 -0.308558 0 255 0
-0.328668 0.221924 0.069354 0 255 0
0.227487 -0.290712 0.206398 0 255 0
-0.281549 -0.558779 -0.347477 0 255 0
0.274889 -0.183354 0.146261 0 255 0
0.119248 -0.288533 -0.298532 0 255 0
0.184049 0.594310 -0.290941 0 255 0
-0.291677 -0.014135 0.159497 0 255 0
-0.135636 0.380719 -0.243815 0 255 0
-0.081849 0.656531 0.359782 0 255 0
0.143886 0.870620 -0.431423 0 255 0
-0.258395 0.591910 -0.149110 0 255 0
-0.327220 -0.915408 0.093838 127 127 0
-0.373108 0.765309 0.214393 0 255 0
0.213792 0.142299 -0.279832 0 255 0
0.125380 -0.613611 -0.384195 0 255 0
-0.198841 -0.644397 -0.394491 0 255 0
0.096884 0.643327 0.302277 0 255 0
-0.109359 -0.190823 0.344787 0 255 0
0.343737 -0.614157 0.120724 0 255 0
-0.148140 -0.171828 -0.298358 0 255 0
-0.336104 0.606065 -0.236271 0 255 0
-0.216841 0.372268 -0.089631 0 255 0
0.251930 -0.915408 -0.236281 0 255 0
-0.197789 0.798814 -0.387631 0 255 0
-0.327727 -0.630837 -0.092134 0 255 0
0.051414 -0.915408 -0.135374 0 255 0
-0.234519 0.096244 0.231885 0 255 0
-0.200423 -0.085247 0.224140 0 255 0
0.145815 -0.007513 -0.239084 0 255 0
0.114517 0.383494 -0.277261 0 255 0
-0.163183 0.541285 -0.310036 0 255 0
0.108960 0.055183 0.231005 0 255 0
-0.238815 -0.677974 -0.273664 0 255 0
-0.261372 0.186770 -0.197781 0 255 0
-0.060734 -0.685594 0.374508 0 255 0
-0.378671 -0.742699 0.163350 0 255 0
-0.141962 -0.495759 -0.326223 0 255 0
-0.009228 0.161941 -0.216859 0 255 0
0.042741 0.590355 -0.344461 0 255 0
0.127450 -0.399100 -0.301851 0 255 0
0.022401 0.812550 -0.410294 0 255 0
-0.305440 0.648415 0.187284 0 255 0
0.151267 -0.089304 0.216378 0 255 0
0.057949 0.453347 0.265626 0 255 0
-0.009481 0.297854 0.361529 0 255 0
0.321619 -0.632808 -0.242543 0 255 0
-0.270053 -0.561010 0.234897 0 255 0
-0.278151 0.703780 -0.144728 0 255 0
-0.192388 -0.288680 -0.235367 0 255 0
-0.150216 -0.506845 0.267483 0 255 0
-0.163124 -0.147190 -0.145391 0 255 0
0.329048 -0.202325 0.024005 0 255 0
0.304417 0.031034 0.101155 0 255 0
-0.278892 0.597882 -0.015816 0 255 0
0.104627 -0.381139 0.330478 0 255 0
-0.197817 0.052131 -0.053299 0 255 0
-0.143964 -0.743944 0.417946 0 255 0
0.025216 -0.915408 0.239114 127 127 0
-0.301452 0.459099 -0.217453 0 255 0
-0.072760 -0.915408 -0.021470 0 255 0
0.382588 0.651622 -0.091332 0 255 0
-0.419351 -0.738791 -0.124133 0 255 0
0.188296 -0.405129 0.301236 0 255 0
0.367816 0.521181 0.004654 0 255 0
-0.007439 0.152114 0.267652 0 255 0
-0.258694 -0.904136 -0.303444 127 127 0
0.380183 -0.672013 -0.140993 0 255 0
0.323479 0.188116 -0.056698 0 255 0
0.206621 -0.331440 -0.198967 0 255 0
-0.083798 -0.245298 0.286571 0 255 0
-0.137835 -0.021956 -0.250223 0 255 0
-0.357248 -0.748701 -0.176918 0 255 0
0.134097 -0.110640 -0.329792 0 255 0
0.148950 0.232824 -0.243336 0 255 0
-0.015200 -0.034733 0.349875 0 255 0
-0.270633 -0.347294 -0.188283 0 255 0
-0.178978 0.715759 0.333690 0 255 0
0.176985 -0.405142 -0.226613 0 255 0
-0.048996 0.518816 -0.329653 0 255 0
-0.010349 0.588169 0.364112 0 255 0
-0.389365 0.893845 0.039144 0 255 0
-0.440556 0.774222 -0.170729 0 255 0
-0.242458 0.030609 -0.138023 0 255 0
0.213246 0.310319 0.229310 0 255 0
0.015500 -0.441243 0.356081 0 255 0
-0.276256 0.358410 0.010861 0 255 0
0.183475 0.678684 -0.271092 0 255 0
-0.126059 0.004537 -0.173843 0 255 0
-0.325057 -0.885676 -0.226813 127 127 0
-0.155322 0.578394 0.301647 0 255 0
0.300084 0.134817 0.021950 0 255 0
-0.177724 0.673839 -0.341362 0 255 0
0.380096 -0.694557 0.257598 0 255 0
0.478842 0.864329 -0.105080 0 255 0
-0.127048 -0.094339 0.263139 0 255 0
-0.058911 0.732179 -0.328295 0 255 0
-0.389611 -0.703718 -0.051975 0 255 0
0.307659 -0.130999 -0.079658 0 255 0
0.498295 -0.685823 0.181385 0 255 0
-0.370694 0.873778 -0.249956 0 255 0
-0.182891 0.195141 0.109018 0 255 0
0.283799 0.433736 -0.156219 0 255 0
-0.414656 -0.499975 0.086555 0 255 0
-0.371545 0.605305 0.181227 0 255 0
-0.245343 -0.242678 0.123600 0 255 0
0.257436 0.589500 0.243944 0 255 0
0.442858 0.842815 0.129172 0 255 0
0.334445 0.836102 -0.205868 0 255 0
0.377811 0.803270 0.222194 0 255 0
0.148983 0.453335 0.284221 0 255 0
0.163875 -0.915408 0.130251 0 255 0
0.095985 -0.708771 -0.382769 0 255 0
-0.308920 0.693121 0.025610 0 255 0
0.075491 -0.126781 0.301127 0 255 0
-0.138360 0.502114 0.224510 0 255 0
-0.069549 0.364828 0.230642 0 255 0
-0.044359 -0.435067 -0.280105 0 255 0
0.014168 -0.507410 -0.336837 0 255 0
0.010797 -0.915408 -0.015659 0 255 0
-0.098802 -0.097695 -0.241138 0 255 0
-0.183362 -0.073359 0.110518 0 255 0
0.249189 0.814933 -0.378819 0 255 0
-0.277539 -0.915408 0.182776 127 127 0
0.088836 -0.697281 0.432406 0 255 0
0.278244 0.196428 0.094399 0 255 0
-0.020758 -0.351723 -0.260436 0 255 0
0.196578 0.297248 -0.265163 0 255 0
0.006921 0.016181 -0.272170 0 255 0
0.082936 0.066563 -0.275557 0 255 0
0.035200 -0.092562 0.229602 0 255 0
0.237940 0.411952 -0.223882 0 255 0
0.046329 0.709103 -0.405408 0 255 0
0.358434 0.549870 -0.087416 0 255 0
-0.385818 -0.829202 0.103999 127 127 0
-0.388836 0.818109 -0.042454 0 255 0
0.370098 0.832792 -0.131912 0 255 0
-0.191953 0.147612 0.183285 0 255 0
-0.108094 -0.159100 0.205509 0 255 0
-0.356881 0.584825 0.096509 0 255 0
-0.194938 -0.731028 -0.379480 0 255 0
-0.320709 0.109011 -0.030732 0 255 0
0.410455 -0.668842 0.150050 0 255 0
-0.414895 -0.662452 0.108794 0 255 0
-0.027763 -0.734187 -0.409396 0 255 0
0.078393 -0.843146 -0.401547 127 127 0
0.376055 -0.749713 0.193433 0 255 0
0.443071 -0.740727 -0.056000 0 255 0
-0.336235 -0.414594 0.004094 0 255 0
-0.281314 0.266845 -0.096054 0 255 0
-0.191805 -0.204452 0.219531 0 255 0
-0.339786 -0.584490 0.170520 0 255 0
-0.147004 -0.598543 -0.349823 0 255 0
-0.023523 -0.915408 0.387369 127 127 0
0.417777 -0.604904 -0.096611 0 255 0
-0.162644 -0.421556 0.311384 0 255 0
-0.160959 0.131992 -0.201655 0 255 0
-0.256859 -0.384012 0.063416 0 255 0
0.328443 0.472435 -0.055320 0 255 0
-0.333143 0.530349 -0.117611 0 255 0
-0.129306 0.801435 0.387168 0 255 0
0.169457 -0.218520 0.258064 0 255 0
-0.502232 -0.708775 -0.052966 0 255 0
0.330712 -0.383396 0.191481 0 255 0
-0.342291 -0.479091 0.097899 0 255 0
0.227291 0.447166 0.247135 0 255 0
0.329941 0.658806 0.186877 0 255 0
0.083614 0.308370 -0.277608 0 255 0
0.236018 -0.097625 0.079359 0 255 0
-0.196052 -0.329751 0.222916 0 255 0
0.364703 -0.411809 0.003516 0 255 0
0.266522 -0.571453 0.300714 0 255 0
0.394974 0.705461 0.037266 0 255 0
-0.215421 0.494498 0.238357 0 255 0
0.301796 0.801506 0.249051 0 255 0
0.302635 -0.466664 0.097480 0 255 0
-0.180243 -0.915408 0.150318 127 127 0
0.245490 -0.275414 -0.229307 0 255 0
0.217604 0.160006 -0.207458 0 255 0
0.062930 -0.329528 0.262604 0 255 0
-0.020674 -0.672285 0.461074 0 255 0
0.350164 -0.115920 0.121348 0 255 0
0.172233 0.095021 -0.153565 0 255 0
-0.376255 0.693849 0.102468 0 255 0
-0.237344 0.211657 0.157157 0 255 0
-0.165233 0.882738 -0.398486 0 255 0
0.206319 0.015652 -0.283120 0 255 0
-0.250296 0.411024 0.163159 0 255 0
-0.004903 0.250691 0.284879 0 255 0
-0.374752 -0.682300 -0.235714 0 255 0
-0.311454 0.829378 -0.192387 0 255 0
0.305529 0.411867 0.075310 0 255 0
0.339480 0.404023 0.001143 0 255 0
-0.321189 0.469380 0.070340 0 255 0
0.170472 0.076429 0.266722 0 255 0
-0.271207 -0.040532 -0.066537 0 255 0
0.265615 -0.915408 -0.063330 127 127 0
-0.220269 -0.839796 0.340414 0 255 0
-0.300707 -0.483634 -0.117887 0 255 0
0.101472 0.548835 -0.323182 0 255 0
0.490988 -0.621882 0.054025 0 255 0
0.276953 -0.735307 -0.365912 0 255 0
0.174145 -0.173450 0.327746 0 255 0
0.184566 0.816639 -0.337808 0 255 0
-0.331953 -0.915408 -0.016605 127 127 0
-0.054804 0.055765 -0.330401 0 255 0
0.223274 0.201872 0.201116 0 255 0
-0.206389 0.182228 0.024392 0 255 0
0.170738 -0.724827 -0.408514 0 255 0
0.235086 -0.028222 -0.134944 0 255 0
-0.143924 0.390208 0.285061 0 255 0
-0.220584 -0.195216 -0.027804 0 255 0
-0.274956 0.527438 0.030064 0 255 0
-0.070328 -0.841391 0.405844 127 127 0
-0.262878 0.535460 0.114426 0 255 0
0.018480 -0.915408 -0.292699 0 255 0
-0.058140 0.196896 0.296468 0 255 0
0.292791 -0.337954 -0.160146 0 255 0
0.321376 0.339420 -0.080989 0 255 0
-0.051682 -0.201367 -0.228832 0 255 0
0.083414 0.526223 0.401966 0 255 0
0.067628 -0.613348 0.376684 0 255 0
-0.191936 -0.216802 -0.192890 0 255 0
-0.201982 0.117971 -0.095606 0 255 0
0.149742 0.159311 -0.244410 0 255 0
-0.292278 -0.702918 -0.318522 0 255 0
-0.286566 -0.915408 -0.159148 127 127 0
0.081526 0.162439 0.216712 0 255 0
-0.289604 0.649300 0.115898 0 255 0
0.021787 0.322370 0.300302 0 255 0
-0.282970 0.267235 0.010003 0 255 0
0.358270 -0.332332 0.003883 0 255 0
-0.260974 0.074065 0.085494 0 255 0
-0.456204 0.869389 -0.020406 0 255 0
-0.215840 -0.074081 -0.248715 0 255 0
0.194704 -0.490845 0.315920 0 255 0
0.270693 -0.412031 0.262195 0 255 0
-0.176036 0.346932 0.146814 0 255 0
0.273038 0.215768 -0.123251 0 255 0
0.300622 0.720183 -0.208540 0 255 0
-0.282846 0.694647 0.289582 0 255 0
0.109374 0.444736 -0.235610 0 255 0
-0.246879 0.611557 0.263258 0 255 0
-0.202118 -0.558341 0.273057 0 255 0
0.110678 -0.500141 0.371504 0 255 0
0.200076 0.847465 -0.475996 0 255 0
-0.276628 -0.386854 0.174679 0 255 0
-0.111001 -0.676580 0.433694 0 255 0
0.323300 0.309187 0.084262 0 255 0
0.318283 -0.272204 -0.053906 0 255 0
-0.269979 0.728527 -0.217597 0 255 0
0.261796 -0.915408 0.207629 0 255 0
0.097424 -0.016755 0.283647 0 255 0
0.008500 0.251612 -0.286264 0 255 0
0.040339 0.015341 0.223322 0 255 0
-0.360472 0.751110 0.061346 0 255 0
-0.029961 -0.894007 -0.403840 127 127 0
0.309322 0.493367 0.039734 0 255 0
0.381060 -0.915408 -0.053909 127 127 0
0.288091 0.123642 -0.077100 0 255 0
-0.356094 0.726539 -0.099369 0 255 0
-0.255936 -0.053638 0.084874 0 255 0
-0.282377 -0.341716 0.259503 0 255 0
0.381734 0.816712 0.074586 0 255 0
0.215506 0.721054 0.364962 0 255 0
-0.262034 0.510261 -0.151792 0 255 0
-0.082116 -0.915408 0.116114 0 255 0
-0.368401 -0.493444 -0.000100 0 255 0
-0.177921 -0.915408 -0.260013 0 255 0
0.098000 -0.842691 0.407325 0 255 0
-0.210843 -0.555507 -0.236613 0 255 0
0.356270 0.266441 0.035297 0 255 0
0.325682 0.620110 0.125994 0 255 0
-0.283188 -0.188835 0.010086 0 255 0
-0.149632 -0.625262 0.315364 0 255 0
0.209012 0.842260 0.338164 0 255 0
0.009573 -0.276573 -0.295830 0 255 0
0.287715 0.411063 0.155724 0 255 0
0.110361 0.667135 0.368516 0 255 0
0.016689 -0.418458 -0.355570 0 255 0
-0.375476 0.885915 0.110327 0 255 0
0.252435 -0.049461 0.129696 0 255 0
-0.259076 -0.278433 -0.149612 0 255 0
-0.376095 -0.715997 0.022651 0 255 0
-0.326305 -0.850195 0.231530 127 127 0
0.146131 0.573508 0.299770 0 255 0
0.238399 -0.593109 -0.305053 0 255 0
0.115557 0.731329 0.405386 0 255 0
0.324895 0.828144 -0.293372 0 255 0
0.408691 0.641521 -0.171726 0 255 0
-0.205623 0.789570 -0.281112 0 255 0
-0.332815 0.748013 0.157883 0 255 0
-0.074308 0.004168 0.262486 0 255 0
0.283281 -0.073639 -0.045333 0 255 0
0.102140 0.464450 -0.322771 0 255 0
0.332568 -0.324941 0.085941 0 255 0
-0.411434 -0.606373 -0.005260 0 255 0
0.200519 -0.670632 0.329939 0 255 0
-0.274667 -0.167665 -0.067492 0 255 0
-0.278859 0.831027 0.242810 0 255 0
0.110415 0.328832 0.245165 0 255 0
0.009540 0.037034 0.328562 0 255 0
0.299021 -0.668597 0.242465 0 255 0
0.488276 -0.616453 -0.069346 0 255 0
0.299768 0.080550 0.197467 0 255 0
0.235009 0.705149 -0.311815 0 255 0
0.312946 0.591863 0.025376 0 255 0
0.320840 0.018126 -0.151539 0 255 0
-0.358079 -0.369522 -0.137047 0 255 0
0.098789 0.263984 0.293888 0 255 0
-0.292243 0.405925 -0.100549 0 255 0
-0.182455 -0.083996 -0.117442 0 255 0
-0.383505 0.889028 -0.110100 0 255 0
0.261112 0.516618 -0.202765 0 255 0
-0.130376 0.223863 -0.314365 0 255 0
0.326252 0.090309 -0.144577 0 255 0
-0.240273 -0.407339 -0.313746 0 255 0
0.170826 -0.843308 -0.375964 127 127 0
-0.271703 -0.476114 0.252157 0 255 0
0.368296 -0.474823 -0.165833 0 255 0
0.096016 0.123223 0.273351 0 255 0
-0.231413 -0.839517 -0.323695 0 255 0
0.322547 -0.828873 0.277011 0 255 0
-0.244878 0.566412 -0.262589 0 255 0
-0.367150 -0.564755 -0.103707 0 255 0
-0.294928 -0.525636 0.071202 0 255 0
-0.315812 -0.569038 -0.222595 0 255 0
0.402756 -0.728874 0.105384 0 255 0
-0.054104 -0.520010 -0.368628 0 255 0
0.205962 -0.729033 -0.346306 0 255 0
-0.084482 0.737391 -0.394818 0 255 0
0.413446 -0.529085 0.009810 0 255 0
0.235744 -0.915408 0.312496 127 127 0
-0.037941 -0.216776 0.239429 0 255 0
0.318695 -0.374526 -0.042044 0 255 0
0.234201 0.394423 -0.116277 0 255 0
0.423875 -0.851628 0.047299 0 255 0
0.287762 0.733492 0.281962 0 255 0
0.286070 -0.745591 0.306665 0 255 0
-0.099619 0.323802 0.345531 0 255 0
0.130366 -0.588127 0.333821 0 255 0
0.012901 0.344886 -0.314803 0 255 0
-0.269336 -0.165214 0.086907 0 255 0
-0.096062 0.719617 0.395508 0 255 0
0.054807 -0.624885 -0.388411 0 255 0
0.297990 -0.318633 0.163304 0 255 0
0.080166 0.218709 -0.268810 0 255 0
0.453006 0.829134 0.013426 0 255 0
-0.036200 -0.423061 0.285089 0 255 0
0.276107 0.276613 -0.231960 0 255 0
-0.018483 0.864519 -0.388296 0 255 0
-0.172029 -0.324800 0.313381 0 255 0
-0.041793 0.372069 -0.354561 0 255 0
0.054465 -0.754746 -0.414612 0 255 0
-0.328591 -0.611302 0.044381 0 255 0
-0.056394 0.388043 0.294942 0 255 0
0.112626 -0.047141 -0.285609 0 255 0
-0.316995 -0.743232 0.302614 0 255 0
0.084476 0.212626 0.345307 0 255 0
-0.303792 -0.459778 -0.183026 0 255 0
-0.092258 -0.034741 0.200007 0 255 0
0.224226 0.251878 -0.089639 0 255 0
0.045986 -0.194677 -0.358594 0 255 0
-0.478139 0.799980 0.091137 0 255 0
-0.378481 0.702303 -0.000563 0 255 0
0.383803 -0.635806 -0.199896 0 255 0
-0.058256 -0.396764 -0.397105 0 255 0
-0.027759 -0.524823 0.449523 0 255 0
-0.173486 -0.052844 0.293295 0 255 0
-0.124444 -0.266453 -0.204022 0 255 0
-0.132528 0.045638 -0.236707 0 255 0
-0.088715 -0.530546 0.377111 0 255 0
0.219439 -0.198266 -0.121944 0 255 0
-0.322302 0.688791 -0.196268 0 255 0
-0.032288 -0.915408 -0.169473 127 127 0
-0.208226 -0.082866 -0.023062 0 255 0
-0.229326 0.876197 0.389900 0 255 0
-0.202510 -0.215271 -0.097944 0 255 0
0.155372 0.773444 -0.383022 0 255 0
-0.307806 -0.134582 0.154063 0 255 0
0.353913 0.753183 0.080698 0 255 0
-0.170718 -0.486266 -0.388522 0 255 0
-0.223897 -0.915408 -0.053769 0 255 0
-0.378415 -0.809516 -0.118638 127 127 0
-0.196173 0.061585 -0.199039 0 255 0
0.310092 -0.423227 -0.167703 0 255 0
-0.027723 0.694013 0.458887 0 255 0
-0.270798 0.748598 -0.291628 0 255 0
-0.230034 0.400812 0.044962 0 255 0
0.119564 0.812613 0.429574 0 255 0
-0.294783 -0.313352 -0.075367 0 255 0
0.234013 0.026761 0.033360 0 255 0
-0.179057 0.334761 -0.133181 0 255 0
-0.137760 -0.467255 0.400586 0 255 0
0.167751 0.472884 0.217682 0 255 0
-0.252590 -0.301873 0.163735 0 255 0
0.154753 0.248684 -0.176843 0 255 0
0.356603 -0.551297 -0.154646 0 255 0
-0.069545 0.455995 -0.295543 0 255 0
-0.210771 -0.692092 0.310265 0 255 0
0.162424 0.338894 0.191476 0 255 0
-0.221947 0.323964 0.046535 0 255 0
-0.428417 -0.645360 0.219491 0 255 0
-0.276169 -0.206736 -0.209163 0 255 0
-0.156758 0.505253 0.302797 0 255 0
-0.333795 0.550410 0.004378 0 255 0
-0.186259 0.468304 -0.162471 0 255 0
0.159224 -0.274448 0.210988 0 255 0
0.153719 0.504375 -0.249804 0 255 0
0.118920 0.114658 -0.191617 0 255 0
0.104611 0.519660 0.330373 0 255 0
0.019973 -0.318664 0.316403 0 255 0
0.020875 -0.171350 0.307512 0 255 0
0.165494 0.774942 0.325578 0 255 0
-0.244784 0.486151 -0.046214 0 255 0
-0.408730 0.610554 -0.039479 0 255 0
-0.151937 0.436533 -0.282835 0 255 0
0.226953 0.879691 0.400494 0 255 0
0.242828 -0.381226 -0.227867 0 255 0
0.033329 0.124475 -0.288238 0 255 0
-0.040656 0.149104 -0.336723 0 255 0
0.339859 -0.672613 -0.305041 0 255 0
0.098597 -0.206229 0.290475 0 255 0
0.217496 -0.150505 0.124374 0 255 0
0.035314 -0.164877 -0.235930 0 255 0
-0.052893 0.280728 0.227983 0 255 0
-0.118358 0.064120 0.251578 0 255 0
0.269987 -0.346424 0.100982 0 255 0
-0.071010 0.531009 -0.259031 0 255 0
0.013401 0.652739 0.374710 0 255 0
-0.070694 0.616649 0.294986 0 255 0
-0.044860 0.110947 0.217670 0 255 0
-0.372883 0.661642 -0.108689 0 255 0
-0.353213 -0.579537 -0.036636 0 255 0
-0.227325 0.230071 -0.157559 0 255 0
0.101994 -0.270492 0.333170 0 255 0
-0.048079 -0.915408 0.221290 127 127 0
0.111203 -0.183064 -0.267947 0 255 0
-0.000811 -0.612443 -0.349625 0 255 0
-0.063794 0.054932 -0.257552 0 255 0
-0.143962 0.732052 -0.345007 0 255 0
0.318212 0.542259 -0.140948 0 255 0
0.232925 -0.065444 0.215076 0 255 0
-0.202189 0.532180 0.174564 0 255 0
0.238935 0.443980 -0.306701 0 255 0
0.177020 0.316860 -0.168991 0 255 0
0.283653 0.634024 -0.260292 0 255 0
-0.311088 -0.647438 -0.231965 0 255 0
0.473259 0.732517 -0.086921 0 255 0
0.299824 -0.522609 0.348906 0 255 0
0.238510 -0.275370 -0.117734 0 255 0
-0.193619 0.670052 0.275520 0 255 0
-0.140390 -0.915408 0.281466 127 127 0
0.023364 0.089685 0.286311 0 255 0
0.277635 0.830902 0.329114 0 255 0
-0.052851 -0.445095 -0.350904 0 255 0
-0.012527 0.531923 0.327634 0 255 0
-0.147840 0.523879 -0.234125 0 255 0
-0.147753 -0.382323 0.224926 0 255 0
-0.062450 -0.793380 -0.400088 0 255 0
0.129179 -0.068938 -0.216519 0 255 0
0.180443 0.361568 -0.234238 0 255 0
-0.369010 0.459876 -0.032338 0 255 0
0.191427 -0.536551 -0.265186 0 255 0
-0.019168 0.448690 0.373350 0 255 0
0.262520 -0.851098 -0.323894 0 255 0
0.317040 0.697722 -0.121566 0 255 0
-0.323569 -0.671884 0.292995 0 255 0
0.343250 0.530061 0.239985 0 255 0
0.406078 0.823835 -0.036878 0 255 0
0.073244 -0.297999 -0.251145 0 255 0
-0.134348 -0.191894 0.272935 0 255 0
0.231669 0.547374 0.183141 0 255 0
-0.208891 0.296978 -0.273265 0 255 0
-0.101442 0.117418 -0.239794 0 255 0
0.252335 -0.179360 0.254138 0 255 0
-0.028168 0.417119 -0.244546 0 255 0
-0.279510 0.410743 0.088450 0 255 0
0.089291 0.237639 0.218677 0 255 0
0.288401 -0.134401 0.097777 0 255 0
-0.233391 -0.296679 -0.287228 0 255 0
-0.066739 0.285148 -0.277008 0 255 0
0.190794 -0.422479 -0.300090 0 255 0
0.234261 -0.229215 0.119439 0 255 0
-0.271207 -0.000039 -0.189491 0 255 0
0.236464 0.135608 -0.011579 0 255 0
-0.125426 -0.913055 -0.381521 127 127 0
-0.265192 0.268705 0.086278 0 255 0
-0.262363 -0.418265 -0.061329 0 255 0
-0.241021 -0.421793 0.131047 0 255 0
0.258803 0.376613 -0.018592 0 255 0
0.266654 -0.150969 -0.231643 0 255 0
-0.298613 0.875374 -0.331211 0 255 0
0.203506 0.126770 0.217425 0 255 0
0.246963 -0.349063 0.230814 0 255 0
0.339826 0.687292 -0.002393 0 255 0
0.457937 0.767265 -0.190444 0 255 0
0.251670 0.792864 -0.316634 0 255 0
0.170351 -0.039693 0.262912 0 255 0
0.302064 -0.628435 -0.389761 0 255 0
-0.186909 0.208899 0.215467 0 255 0
0.037399 0.452437 -0.322957 0 255 0
0.359847 -0.599691 -0.000264 0 255 0
-0.312036 0.608506 -0.114206 0 255 0
-0.251903 -0.410268 -0.184717 0 255 0
-0.240542 -0.305148 -0.026241 0 255 0
0.285843 0.643380 -0.148559 0 255 0
0.040024 0.566067 -0.405446 0 255 0
0.003116 0.706874 0.337724 0 255 0
0.178005 0.394734 0.278176 0 255 0
0.198221 0.203940 -0.137453 0 255 0
0.086284 0.399779 0.372106 0 255 0
-0.127470 0.002531 -0.310258 0 255 0
0.344690 0.514784 0.090739 0 255 0
0.216616 0.612387 -0.236904 0 255 0
-0.217506 -0.727808 0.385878 0 255 0
0.143395 -0.659253 -0.427550 0 255 0
-0.208515 0.058906 0.144518 0 255 0
0.396843 -0.385161 0.139104 0 255 0
-0.247133 -0.915408 0.285536 127 127 0
0.303565 -0.495349 -0.098675 0 255 0
-0.196795 -0.628271 -0.277555 0 255 0
-0.129805 0.314461 0.267045 0 255 0
0.258209 -0.636545 -0.258310 0 255 0
-0.073964 0.568830 0.339698 0 255 0
-0.370740 0.831316 0.215853 0 255 0
0.032441 -0.793922 0.414866 0 255 0
-0.273903 0.126181 0.011001 0 255 0
0.380897 0.885224 0.224471 0 255 0
-0.215117 0.431022 0.112296 0 255 0
-0.138685 0.617861 -0.319060 0 255 0
-0.411238 0.811629 0.108428 0 255 0
-0.332002 0.645237 0.062883 0 255 0
0.207656 0.123919 0.116825 0 255 0
0.242288 -0.142268 -0.056424 0 255 0
0.295639 -0.559048 -0.199825 0 255 0
-0.151895 -0.332027 -0.281192 0 255 0
0.348768 -0.607182 -0.092084 0 255 0
0.278265 -0.256606 0.179769 0 255 0
-0.211140 0.012418 0.078078 0 255 0
0.249889 0.297438 -0.003271 0 255 0
0.074762 0.690280 -0.314757 0 255 0
-0.447840 -0.731672 0.099028 0 255 0
-0.326376 -0.789779 -0.225149 0 255 0
0.339826 -0.483915 -0.037066 0 255 0
-0.244513 0.117886 0.133466 0 255 0
-0.148536 -0.915408 0.351665 127 127 0
0.025842 -0.673864 -0.440395 0 255 0
0.044607 0.331958 -0.231798 0 255 0
-0.047171 -0.557906 0.325803 0 255 0
0.208468 -0.658613 -0.311348 0 255 0
-0.273857 -0.015022 0.011039 0 255 0
0.045915 -0.915408 -0.069846 127 127 0
-0.075258 -0.415698 0.342898 0 255 0
-0.165479 -0.448007 0.233629 0 255 0
-0.222841 0.441757 -0.292453 0 255 0
0.210189 0.745230 0.438401 0 255 0
-0.221767 -0.122578 -0.156130 0 255 0
-0.131447 0.130341 0.169322 0 255 0
0.298723 -0.079102 0.023054 0 255 0
-0.143047 -0.294689 0.204528 0 255 0
-0.211529 -0.447391 0.188404 0 255 0
-0.298583 -0.263036 0.090698 0 255 0
-0.130414 0.399705 0.205270 0 255 0
-0.103223 0.220016 -0.243972 0 255 0
0.323626 -0.649691 0.383687 0 255 0
-0.278915 0.698585 0.155886 0 255 0
0.355809 -0.266973 0.103586 0 255 0
0.290766 -0.500338 -0.227967 0 255 0
0.043603 -0.482923 0.304656 0 255 0
-0.275468 0.347681 -0.067805 0 255 0
0.193906 0.245487 0.164298 0 255 0
0.061831 0.576415 -0.280912 0 255 0
-0.066664 0.837890 -0.443086 0 255 0
0.164963 -0.141347 -0.264143 0 255 0
-0.065789 -0.051372 -0.270733 0 255 0
0.365887 -0.910955 0.222385 127 127 0
-0.038628 -0.227710 -0.286044 0 255 0
-0.187325 -0.122063 0.152979 0 255 0
0.407131 -0.606407 0.115160 0 255 0
0.185428 -0.569541 0.360835 0 255 0
-0.253547 0.664443 -0.270115 0 255 0
0.059585 -0.915408 0.025763 0 255 0
0.362339 -0.387421 -0.087001 0 255 0
0.238356 0.254955 0.119308 0 255 0
-0.310077 -0.591512 0.103766 0 255 0
0.294817 -0.409888 0.044625 0 255 0
-0.292408 0.788310 -0.379775 0 255 0
-0.010659 0.058045 0.228363 0 255 0
0.476877 0.785410 0.179871 0 255 0
0.219095 -0.410741 0.201818 0 255 0
0.053081 0.770602 0.371501 0 255 0
0.378075 0.649009 0.103764 0 255 0
-0.146001 -0.233397 -0.329684 0 255 0
0.127542 -0.915408 -0.090421 127 127 0
0.353212 -0.635185 0.239991 0 255 0
-0.344446 0.843712 -0.132003 0 255 0
0.119707 -0.371745 0.255009 0 255 0
0.005502 0.811863 0.444480 0 255 0
-0.108553 -0.335457 0.349812 0 255 0
-0.112760 -0.131528 -0.188525 0 255 0
-0.066633 0.370385 -0.224940 0 255 0
-0.202433 -0.419523 -0.253188 0 255 0
0.203545 0.079588 -0.282051 0 255 0
0.190488 0.504425 0.309987 0 255 0
0.322820 -0.526453 0.090000 0 255 0
0.169881 0.152243 0.166332 0 255 0
0.367481 -0.141020 -0.059637 0 255 0
-0.257392 -0.535728 -0.274972 0 255 0
0.093705 0.216277 -0.206855 0 255 0
0.207224 0.534586 -0.278533 0 255 0
0.324194 0.516409 -0.244801 0 255 0
0.419702 0.848452 -0.215456 0 255 0
-0.151771 0.771635 0.321299 0 255 0
0.274302 -0.166616 -0.120594 0 255 0
-0.289369 -0.759013 -0.271798 0 255 0
0.255645 -0.195929 0.004327 0 255 0
-0.161495 0.448673 0.263849 0 255 0
0.331978 0.766752 -0.264910 0 255 0
-0.121568 0.020272 0.176709 0 255 0
0.234089 0.729142 -0.253582 0 255 0
-0.396591 -0.626347 -0.115581 0 255 0
-0.267316 0.762954 0.279724 0 255 0
0.309888 0.365764 0.219277 0 255 0
0.059788 -0.915408 0.134559 0 255 0
-0.171522 0.674675 -0.253742 0 255 0
0.162882 -0.160085 0.195306 0 255 0
-0.141620 0.192296 -0.157260 0 255 0
0.292279 -0.378988 -0.108720 0 255 0
0.344058 0.186344 0.116935 0 255 0
0.419926 -0.717200 -0.182862 0 255 0
0.401676 -0.659301 -0.307471 0 255 0
0.527615 -0.700397 -0.075786 0 255 0
-0.167205 -0.022770 -0.135067 0 255 0
0.251403 0.877579 -0.382295 0 255 0
-0.301530 0.628373 -0.180892 0 255 0
0.310284 0.684256 0.132990 0 255 0
-0.119586 0.695678 0.328460 0 255 0
0.165168 -0.197889 -0.182014 0 255 0
-0.357027 0.838805 0.147463 0 255 0
-0.231712 -0.035623 0.154556 0 255 0
0.188684 -0.915408 -0.189917 0 255 0
-0.037482 0.434268 0.253887 0 255 0
0.337041 -0.531101 0.004910 0 255 0
-0.253944 0.155892 -0.087150 0 255 0
